486;488;487;486;484;482;481;481;482;483;483;481;477;473;469;465;461;457;454;452;450;450;450;452;455;459;466;473;482;492;501;510;517;522;524;523;519;513;507;501;496;493;491;491;490;487;482;476;470;466;463;463;464;464;465;467;469;473;477;481;487;494;502;511;519;526;533;539;545;550;555;559;562;564;565;565;565;566;566;567;568;570;572;575;578;581;584;588;591;594;598;601;605;609;614;619;626;633;639;646;651;656;661;665;669;675;681;688;695;702;709;714;718;720;720;717;712;705;696;687;678;672;669;670;675;681;689;697;704;710;715;720;723;725;727;727;728;729;730;731;731;731;730;729;725;721;715;709;703;695;687;678;668;661;654;647;641;634;627;618;609;601;592;585;578;572;567;563;559;556;551;546;540;532;523;514;506;501;500;502;508;514;520;527;533;539;545;552;559;565;570;574;576;578;578;576;570;561;550;538;527;517;509;503;497;492;487;484;482;484;489;497;508;519;530;540;547;553;557;560;564;568;574;577;576;573;570;566;561;557;553;549;544;538;534;530;527;525;523;521;519;516;511;504;495;486;475;468;461;455;448;438;433;430;430;430;431;433;435;437;438;439;440;440;439;439;437;434;429;423;416;409;400;393;385;377;371;365;359;353;349;347;348;352;359;367;374;382;391;399;408;417;426;434;441;447;449;449;445;440;436;435;436;439;441;441;438;433;427;420;414;409;405;400;393;388;384;380;379;380;383;388;395;402;410;419;427;436;444;452;459;466;472;477;480;480;478;476;475;474;473;474;477;482;487;494;502;509;515;519;522;524;523;521;519;519;518;516;513;507;502;495;490;485;480;475;473;474;476;479;481;483;486;491;497;502;506;508;506;503;498;494;493;494;495;496;496;494;490;485;480;478;479;483;488;495;501;506;510;511;511;510;509;508;509;513;519;527;536;547;558;569;577;584;589;591;591;590;588;588;590;593;598;602;607;611;614;618;622;627;631;634;635;635;635;635;634;629;624;618;612;608;605;604;607;612;618;623;624;622;616;608;600;591;582;572;562;552;541;531;520;510;501;492;486;484;486;491;499;509;518;528;537;547;558;569;581;592;602;609;610;604;594;581;570;562;556;551;548;544;540;537;535;535;537;542;548;556;565;575;587;599;610;621;629;636;643;650;659;667;676;684
487;488;486;482;479;476;475;476;478;480;480;478;474;469;464;459;455;452;450;448;447;447;448;450;454;458;465;473;482;492;500;508;514;517;519;517;514;509;504;498;493;489;486;484;482;479;475;469;464;460;458;459;460;461;463;465;468;471;476;482;488;496;504;514;521;529;534;538;542;545;548;550;552;553;554;554;555;556;557;558;560;562;564;567;570;574;578;582;586;592;596;602;607;613;619;626;633;640;647;653;657;661;666;669;673;678;684;691;698;705;711;716;719;719;716;712;705;697;688;680;672;666;663;663;666;672;679;686;694;700;705;711;715;718;721;722;724;725;726;727;727;727;727;725;721;716;709;702;695;686;678;669;659;651;644;638;632;626;619;612;604;596;589;582;576;571;568;566;564;563;559;554;547;538;528;518;509;502;499;500;504;509;515;521;527;532;538;544;550;555;560;564;567;570;571;571;567;560;551;540;529;518;509;502;494;489;484;480;480;482;488;497;508;519;529;537;543;548;552;556;560;565;569;572;571;568;564;559;554;550;546;541;537;531;526;522;520;518;516;515;514;511;508;502;496;488;479;471;465;458;450;441;436;433;431;430;429;429;429;430;431;432;433;433;433;433;431;429;425;419;412;405;398;391;384;377;371;364;357;351;347;346;347;352;359;367;374;381;389;396;404;413;421;430;437;443;446;446;443;438;434;431;432;433;434;434;430;425;419;412;406;402;397;392;386;381;378;377;378;380;384;390;397;403;411;418;426;434;441;448;455;460;464;468;470;470;467;465;464;465;467;470;474;481;488;496;503;510;515;519;522;523;520;516;514;512;511;509;507;503;498;492;486;480;474;471;469;470;472;474;475;477;481;487;494;501;506;507;505;499;493;488;486;487;488;490;490;489;485;481;477;475;476;480;486;493;498;503;505;506;506;505;505;507;510;515;522;531;541;551;561;571;578;583;586;586;585;583;583;585;588;594;600;606;612;616;619;623;626;630;632;633;632;631;629;626;622;616;611;606;601;597;594;595;598;604;611;616;619;617;612;605;598;590;582;574;564;554;542;530;519;508;499;490;485;484;486;491;499;508;518;529;539;549;561;572;583;593;601;605;605;598;587;575;564;556;550;544;539;535;533;532;532;535;539;544;551;558;566;575;586;596;605;614;621;629;635;642;651;660;670;679
488;487;483;479;474;471;470;472;475;477;477;475;470;465;459;455;451;448;445;444;444;444;445;448;452;457;464;472;481;490;498;505;509;512;512;511;509;506;502;497;491;486;481;478;475;472;468;463;458;456;455;455;457;458;460;462;465;470;475;481;489;497;506;514;522;528;532;534;536;537;538;539;540;542;543;545;547;548;551;553;556;559;562;565;568;572;577;582;587;593;599;605;612;618;626;634;642;650;657;663;667;671;675;678;681;685;690;697;703;709;715;717;718;715;710;704;697;688;680;672;665;659;656;656;658;663;669;676;683;688;693;698;702;707;710;713;715;717;718;719;719;720;719;717;712;707;700;692;684;676;667;658;649;642;635;629;623;617;611;605;598;592;586;581;578;574;573;573;573;572;569;564;556;545;534;523;513;505;500;498;500;503;508;514;520;525;530;535;541;546;550;554;557;560;562;563;561;556;548;539;529;519;510;501;492;485;480;477;477;480;487;496;506;516;525;532;538;543;547;552;557;562;566;569;568;565;560;555;550;545;540;535;530;524;519;515;511;509;508;507;506;504;502;498;493;487;479;473;467;459;452;444;439;436;432;429;426;424;423;423;424;425;426;427;426;426;425;423;420;414;408;401;394;388;382;376;370;363;355;349;345;344;347;352;359;366;374;380;387;393;401;409;417;426;433;439;443;444;441;436;431;428;427;426;426;425;422;417;410;404;399;395;390;385;380;376;374;375;378;381;386;392;398;404;410;416;423;430;436;442;448;452;455;458;459;459;458;457;458;460;464;469;475;483;491;498;505;510;515;519;522;521;518;514;510;507;504;502;500;496;492;486;480;473;468;466;465;466;467;469;470;473;477;483;492;499;504;506;502;496;489;484;480;480;482;483;484;483;480;477;473;471;473;477;483;490;495;499;501;501;500;501;502;505;510;516;524;533;544;554;563;570;575;578;579;578;577;576;578;582;588;595;603;609;615;620;623;626;629;631;632;632;629;626;622;617;611;604;599;594;590;587;585;586;589;596;603;608;611;610;606;600;594;587;581;573;564;554;540;528;516;504;495;487;483;482;485;490;498;507;517;529;540;551;563;573;584;592;598;600;597;590;579;569;559;551;544;537;532;528;527;528;531;535;540;546;552;559;566;573;582;591;599;607;614;621;628;636;645;655;665;675
489;486;481;475;470;467;466;469;472;474;475;472;468;462;456;451;447;443;441;440;440;441;443;446;450;455;462;471;479;488;494;500;503;505;505;505;504;502;500;495;489;483;477;472;468;465;461;457;454;452;452;453;455;456;458;460;463;468;474;481;489;496;504;513;519;524;527;528;528;528;528;529;531;533;536;539;542;545;548;552;556;560;563;567;571;575;580;585;591;598;604;611;618;625;633;642;651;660;667;673;678;681;685;687;689;693;697;703;709;715;718;719;716;710;704;696;688;680;671;664;657;653;650;649;651;656;661;667;672;677;681;685;689;694;698;701;704;706;708;709;710;710;709;707;702;696;688;680;673;665;657;649;640;634;627;621;616;609;604;599;594;590;586;583;581;580;580;581;582;582;578;573;563;552;540;527;517;508;501;497;496;498;501;506;512;517;522;527;532;537;541;545;548;551;553;554;553;549;544;536;528;519;510;500;490;482;477;474;474;478;485;494;503;512;519;526;532;538;544;550;556;561;565;567;566;563;559;554;549;543;537;531;525;518;513;508;504;502;500;499;498;497;495;492;488;483;478;473;466;460;453;446;441;437;433;429;424;421;418;417;417;418;419;420;420;419;419;418;415;410;404;398;391;385;380;374;368;361;354;348;344;343;346;352;358;366;372;379;386;392;399;407;415;424;431;438;442;442;439;434;428;424;421;419;418;417;414;410;404;398;394;389;384;379;375;373;372;375;379;384;389;394;399;404;409;414;419;425;431;436;440;444;447;449;451;452;452;454;456;460;466;472;478;486;493;500;507;511;515;519;521;520;517;513;509;504;499;496;493;490;486;480;473;467;463;461;462;463;464;466;467;470;474;481;490;498;503;504;501;494;487;480;476;475;476;477;478;477;475;472;469;468;470;474;480;487;492;495;497;496;496;497;499;503;509;517;525;534;545;554;562;568;571;572;571;570;569;570;574;580;588;597;605;612;618;622;625;628;630;631;631;630;626;621;616;610;603;595;589;585;581;578;577;578;582;588;594;599;602;602;599;594;589;583;577;571;562;551;537;524;511;500;491;484;480;480;484;490;498;507;517;529;540;552;564;574;584;591;594;594;589;581;571;562;553;546;539;532;527;524;524;525;529;534;539;545;551;557;563;570;578;586;594;602;608;616;623;631;640;650;661;671
489;484;479;472;466;463;462;464;467;470;470;468;464;458;452;447;442;439;436;435;435;437;440;443;447;453;460;468;476;484;490;494;496;497;497;497;498;497;496;492;486;479;471;466;461;456;453;450;449;448;449;450;453;455;456;459;462;466;472;479;486;493;500;508;514;518;519;520;520;520;521;523;526;529;533;537;541;546;550;555;560;565;569;573;577;582;587;592;598;605;611;618;624;631;640;649;659;668;676;683;688;692;696;698;699;702;706;711;716;721;722;719;713;705;697;688;679;671;662;655;649;645;642;642;645;649;654;658;662;665;668;671;675;679;684;688;691;694;696;698;699;699;698;695;690;684;676;669;662;654;648;641;634;628;622;616;610;604;600;596;593;590;589;588;588;588;589;591;592;591;587;580;569;556;544;531;520;511;502;496;493;492;494;498;502;507;512;516;522;527;531;535;538;540;542;542;542;540;536;531;525;517;508;498;488;479;472;470;471;476;483;490;499;506;513;520;527;535;542;549;556;562;565;566;566;563;559;554;548;543;535;528;521;514;509;503;499;496;494;493;492;491;489;486;483;479;475;470;464;458;452;446;441;437;431;426;421;417;413;411;410;410;411;412;413;413;413;412;409;404;399;394;388;382;377;372;366;359;352;346;343;342;346;351;357;364;371;377;384;391;398;407;415;423;431;436;440;440;436;430;424;419;415;411;409;409;407;403;398;393;388;383;379;375;372;371;373;377;382;388;394;398;402;406;409;413;416;421;426;430;434;438;441;444;446;449;451;454;459;464;470;476;482;489;496;503;508;513;516;519;519;517;515;512;507;502;496;491;488;485;480;474;467;462;459;458;459;460;461;463;464;467;473;480;488;496;500;501;498;491;484;477;471;469;470;472;472;471;469;466;464;463;466;471;478;484;489;491;492;492;491;492;495;500;507;515;524;533;542;551;558;562;564;564;563;562;563;567;572;580;589;599;607;613;619;623;625;627;628;629;629;627;623;618;612;605;596;587;581;576;572;569;569;570;574;580;585;590;592;592;590;587;582;577;572;566;557;546;532;519;506;495;487;481;478;478;483;490;499;509;519;530;541;553;565;575;583;589;591;588;582;573;564;555;547;540;533;527;523;521;521;523;527;532;537;543;549;555;561;567;576;584;592;600;607;614;621;629;638;647;658;667
488;483;476;469;463;459;457;459;462;465;465;463;459;454;448;443;438;434;432;431;431;433;437;440;445;450;457;464;472;479;484;488;489;489;489;489;491;492;491;487;481;474;466;459;453;449;446;444;444;445;447;449;452;454;456;458;461;465;471;476;482;488;495;501;506;510;512;513;514;515;518;521;525;530;534;540;545;550;555;561;566;572;577;581;587;591;596;602;607;614;620;626;632;638;647;656;665;675;683;691;697;702;706;707;709;711;714;719;723;726;725;720;712;702;692;681;672;664;655;648;642;638;636;637;639;643;648;652;654;656;658;660;662;666;670;674;678;681;684;687;689;689;688;685;680;674;667;659;653;647;641;636;630;625;619;613;608;603;599;597;595;594;594;595;597;598;599;600;600;598;592;583;572;559;546;533;523;513;503;495;490;488;488;490;493;497;501;506;512;517;522;526;529;531;531;532;531;530;528;524;520;514;506;496;485;475;468;466;468;473;480;487;495;502;508;516;524;534;542;551;558;562;565;566;565;562;559;554;549;543;535;528;521;513;507;502;497;493;490;489;488;487;485;483;480;476;471;467;461;455;449;444;439;435;429;424;419;413;409;406;404;404;405;406;406;406;406;405;403;399;395;390;385;380;375;370;364;357;350;345;341;341;345;350;356;363;370;376;384;391;399;408;417;425;430;435;437;436;432;426;420;414;409;404;402;402;400;397;392;387;383;378;374;371;370;371;375;381;388;394;400;404;407;409;411;414;416;420;423;427;431;435;438;441;445;448;452;457;462;468;475;481;488;495;501;507;512;515;518;518;518;515;513;510;506;500;494;489;485;481;475;469;463;458;455;454;456;458;459;460;462;466;471;479;487;493;497;498;494;488;480;473;468;465;465;466;467;465;463;460;459;460;464;469;476;482;486;488;489;488;487;488;491;497;504;512;521;529;538;545;551;554;555;556;556;557;560;565;573;582;591;600;608;615;619;622;623;624;625;626;627;626;621;617;610;602;592;581;574;568;564;562;562;564;568;573;577;581;584;584;583;580;576;572;567;559;550;539;526;513;500;490;482;477;475;477;483;491;501;512;522;533;544;555;567;576;584;588;588;583;575;567;557;550;543;536;530;524;520;518;518;521;525;529;534;540;546;553;560;567;576;585;594;602;609;616;623;631;639;647;656;665
485;480;473;465;458;453;451;452;455;457;458;457;453;449;443;438;433;429;427;427;428;430;433;437;442;447;454;461;467;474;478;481;481;480;479;480;481;483;483;479;474;466;458;451;446;442;439;438;440;442;445;448;451;454;456;459;461;465;469;474;479;484;490;495;500;504;506;508;511;514;519;524;529;535;540;546;552;557;563;569;575;581;587;592;598;602;607;612;618;624;629;634;639;645;653;661;670;680;688;696;703;709;714;716;718;721;724;726;729;730;727;720;710;699;688;677;667;658;650;642;636;631;630;630;633;637;641;644;646;647;647;649;650;653;656;660;664;668;673;677;679;680;680;677;672;666;660;654;648;643;639;635;630;625;620;615;611;607;604;603;602;602;603;605;606;607;608;607;604;600;592;583;572;558;546;534;524;514;504;496;489;485;483;483;485;487;491;495;500;505;510;515;518;519;520;520;520;519;519;516;514;508;501;491;480;471;464;462;464;470;477;485;492;498;506;515;524;535;544;552;559;562;564;564;563;560;556;552;546;541;534;527;520;513;507;501;496;491;488;486;485;484;483;481;478;474;470;464;459;452;447;442;437;433;427;422;416;411;406;401;399;398;398;399;399;399;399;397;395;393;389;386;381;377;372;367;361;354;348;343;340;340;344;349;355;362;369;375;383;390;400;409;418;425;429;432;432;430;426;421;416;409;402;398;395;395;393;389;385;380;376;372;370;369;369;373;380;388;395;402;408;411;414;416;417;419;420;422;424;427;431;435;438;442;446;451;456;461;467;473;480;487;494;501;507;512;515;517;518;517;515;512;509;506;503;498;492;487;483;477;472;465;458;453;451;451;453;455;457;458;459;463;469;476;484;490;493;492;488;482;475;468;463;460;460;460;460;458;456;454;454;457;462;468;474;480;483;485;485;484;482;483;486;492;499;507;515;523;530;537;541;545;547;548;551;554;559;566;574;584;593;602;610;615;619;620;620;621;622;623;625;624;621;616;609;600;589;576;567;560;555;553;553;556;560;565;569;572;575;576;576;574;571;566;561;553;543;532;518;506;495;485;478;474;472;475;483;493;504;516;527;538;549;559;569;578;584;587;584;578;570;562;552;545;538;533;527;521;517;515;516;518;523;527;533;540;547;555;563;571;581;591;601;609;616;622;629;635;642;649;657;665
482;476;469;461;454;448;446;446;448;450;451;450;447;443;438;433;428;425;423;423;424;427;431;435;440;445;451;457;463;469;472;474;474;472;471;471;472;474;474;471;465;458;451;444;439;436;435;436;438;441;444;448;451;454;457;460;462;466;470;473;478;482;487;492;496;500;504;507;512;517;523;529;536;542;548;554;560;565;572;578;584;591;597;603;609;614;619;623;628;633;637;641;646;651;657;664;672;681;689;698;706;712;718;722;726;729;732;734;735;734;728;719;708;697;686;674;665;656;646;638;631;627;625;625;628;632;635;637;638;639;639;639;641;643;646;649;654;659;664;669;672;674;674;672;668;663;657;652;648;644;641;637;633;629;625;621;618;614;613;612;611;612;613;614;615;615;613;609;604;597;589;580;568;556;545;534;523;514;505;497;490;485;482;480;480;481;483;486;490;495;500;504;507;508;509;510;510;510;510;509;507;502;495;486;475;467;461;459;461;467;475;482;490;497;506;516;526;537;547;554;559;562;563;562;560;556;552;548;543;537;531;525;519;513;508;502;496;491;487;484;483;482;481;480;478;475;470;464;458;452;446;441;437;432;427;421;415;409;404;399;396;394;394;394;394;393;392;390;388;386;384;381;378;374;370;364;358;351;345;341;339;340;343;349;354;361;368;374;382;390;399;409;418;424;428;428;427;424;420;416;411;404;397;393;390;389;386;382;378;373;370;368;367;368;372;378;386;396;403;410;416;420;423;424;425;426;426;427;428;430;433;437;441;446;450;456;461;467;473;479;487;494;501;507;512;515;517;517;516;514;512;509;506;503;499;495;490;485;480;475;469;462;455;450;447;447;449;452;453;455;457;461;467;474;480;485;487;486;482;476;470;464;459;456;455;455;454;453;451;450;451;455;461;467;473;479;481;482;482;480;478;478;481;487;494;502;509;516;523;528;532;536;539;543;547;552;560;568;577;587;596;604;610;614;617;618;618;618;619;621;624;624;620;615;608;598;587;573;562;553;548;546;546;549;553;558;561;565;568;570;571;569;567;562;556;547;536;525;512;501;490;481;474;470;470;474;483;495;507;520;531;543;553;563;572;579;584;586;582;576;568;559;550;542;535;530;524;518;514;512;514;517;522;527;534;542;550;559;569;579;590;600;610;619;625;631;636;641;647;652;659;666
476;470;462;455;448;442;439;439;440;442;443;443;441;437;433;428;424;420;419;419;421;425;429;433;437;442;448;453;459;463;465;466;466;464;462;462;462;463;463;461;456;449;443;437;433;432;432;434;437;440;443;447;451;454;457;461;464;468;472;476;480;484;488;493;497;501;506;510;516;522;529;537;544;551;557;563;570;575;581;587;594;601;608;614;620;625;629;632;636;639;643;646;650;654;659;665;671;679;687;696;705;712;719;725;730;735;739;739;739;735;726;716;705;694;684;672;663;654;643;634;626;621;619;619;621;624;626;628;629;628;628;629;630;633;636;640;644;650;656;661;666;669;669;668;664;660;656;652;649;646;645;643;640;637;634;631;629;626;624;623;622;622;622;623;622;619;614;608;599;591;583;574;564;553;543;533;524;515;507;500;493;487;483;480;478;478;478;479;481;485;488;492;495;496;497;498;499;500;501;500;499;495;488;479;470;462;457;456;459;465;472;480;489;498;508;518;529;540;548;554;558;559;560;558;555;551;546;541;536;531;526;521;516;511;506;501;495;490;485;481;480;479;478;477;477;475;471;466;460;454;449;444;439;435;429;423;417;410;404;398;394;392;391;390;389;387;385;383;381;379;377;376;373;370;366;360;354;348;342;339;338;339;343;348;354;361;367;374;381;389;397;407;416;422;424;423;421;417;413;408;404;397;392;388;385;382;378;374;370;367;365;365;367;370;376;384;393;403;411;417;423;427;432;434;434;435;434;434;434;435;438;441;446;451;456;462;467;474;481;488;495;502;508;512;515;516;516;515;513;510;507;504;502;499;495;491;485;481;476;472;466;459;452;447;444;444;445;447;449;451;453;457;463;470;475;479;480;478;474;468;463;458;454;452;450;449;448;447;447;447;450;454;460;467;472;477;479;479;478;475;473;473;475;480;487;495;503;509;515;520;524;529;533;538;544;552;561;571;580;590;598;604;609;612;614;615;616;616;618;620;623;623;619;614;605;595;584;569;557;547;540;537;537;540;544;549;553;557;561;564;566;565;563;559;552;542;531;520;507;497;486;477;471;467;468;473;484;496;510;524;536;547;558;567;574;579;583;583;579;572;564;556;547;540;532;526;520;514;511;510;512;517;523;530;538;548;557;567;578;588;600;610;619;627;633;638;642;646;651;655;661;667
471;464;457;449;442;436;433;433;434;436;438;438;436;433;428;424;419;417;416;417;419;423;427;431;435;439;444;449;453;457;458;459;458;456;455;453;454;454;454;452;448;442;437;432;429;429;430;433;436;439;443;446;450;454;458;463;467;472;476;480;484;488;493;497;501;506;510;515;522;528;536;544;552;560;567;573;579;584;590;596;603;610;617;623;628;632;636;638;640;642;644;647;650;653;657;662;667;674;681;690;700;708;717;724;731;737;741;740;738;732;722;711;700;691;682;672;662;653;642;632;623;617;614;613;614;616;617;619;619;619;620;621;622;625;629;633;638;644;651;657;662;665;666;665;663;660;657;654;652;651;650;649;648;647;645;643;641;638;636;634;632;632;631;629;626;619;611;602;592;583;575;567;558;549;541;532;524;516;509;503;496;490;485;482;479;477;476;475;476;477;480;482;484;485;487;488;490;491;493;493;492;488;482;474;466;459;455;454;457;463;470;479;489;499;510;521;532;541;548;553;555;556;556;555;551;546;541;535;530;525;520;516;512;507;503;498;493;487;482;479;476;475;475;475;475;475;473;469;464;459;454;449;444;440;434;428;420;413;406;400;395;392;390;389;386;384;380;377;375;373;371;370;369;366;362;357;351;345;340;337;337;339;343;348;354;361;367;374;381;388;396;405;413;418;420;419;415;410;405;401;396;391;387;383;379;375;371;367;364;362;362;364;368;373;380;389;398;408;415;422;428;433;438;442;443;444;443;442;442;442;444;447;451;456;462;468;474;481;489;496;503;508;512;515;516;516;515;513;509;506;503;500;497;494;491;486;481;476;472;468;463;456;449;444;440;440;441;443;444;447;450;454;460;466;471;474;474;471;467;462;458;454;450;448;446;445;445;444;444;446;449;454;460;467;472;476;477;477;474;471;469;468;470;475;482;489;497;503;509;514;518;524;529;535;544;553;564;574;583;592;598;603;607;609;611;612;614;615;617;620;622;622;618;612;603;593;581;567;553;542;534;530;529;532;537;542;547;551;556;560;563;564;562;557;550;540;528;517;504;494;483;475;468;465;466;473;484;497;512;526;539;551;561;569;575;579;580;579;575;568;561;553;546;538;530;523;516;511;509;509;513;519;526;535;544;555;565;577;587;598;609;618;626;633;637;641;644;648;652;657;663;668
464;457;450;442;436;430;428;428;429;431;433;434;432;428;424;419;415;413;413;414;417;420;424;427;431;435;439;443;446;449;450;450;450;448;446;445;445;445;445;444;441;436;431;427;426;426;428;431;435;438;442;446;451;455;460;466;471;477;482;487;492;496;501;505;509;514;518;523;529;536;544;552;560;569;576;582;587;592;598;603;610;617;624;629;633;635;637;639;640;641;642;643;646;648;652;656;661;668;675;684;693;703;713;720;728;734;737;735;731;723;712;702;692;685;678;669;660;650;639;628;618;612;608;606;606;607;607;608;609;609;610;611;614;617;621;626;633;639;645;652;657;660;661;661;659;657;655;654;653;654;654;655;656;657;656;655;654;651;648;645;642;640;637;633;626;617;606;595;584;575;568;561;554;547;540;532;526;520;513;507;500;494;489;485;481;478;475;473;471;471;472;473;474;475;475;477;479;481;484;485;484;480;475;468;461;456;453;452;455;460;468;476;488;499;510;522;531;540;545;549;551;553;553;552;548;543;537;531;525;519;514;510;506;502;498;493;488;483;478;474;472;470;469;470;472;474;474;472;468;464;460;456;452;447;441;435;427;419;411;404;398;394;391;389;386;382;377;373;370;368;366;365;364;362;358;353;348;343;339;336;336;338;342;348;354;361;368;375;382;389;397;404;410;414;415;413;408;403;397;392;388;384;380;376;372;368;364;361;359;359;361;366;371;378;386;394;402;411;418;425;431;437;443;447;450;451;451;451;450;450;452;455;459;463;469;475;482;489;497;503;509;513;514;515;515;514;512;509;505;501;499;495;493;490;486;482;477;471;467;462;458;452;446;440;437;436;436;438;439;442;446;451;457;463;467;469;468;465;460;456;452;449;446;444;442;441;441;441;442;444;449;454;460;466;471;474;475;473;470;467;464;463;464;469;475;483;491;498;504;509;513;519;525;533;543;554;566;576;585;592;597;600;602;604;606;609;611;614;616;619;620;619;615;608;599;589;577;563;549;538;528;523;521;523;528;534;539;545;551;556;559;560;559;554;547;537;526;514;501;490;480;472;466;463;465;473;485;499;514;529;542;554;563;570;575;576;575;572;567;560;553;547;541;535;526;518;511;507;506;508;514;521;530;540;551;563;573;585;595;604;614;621;628;633;636;639;643;647;652;657;663;668
457;451;443;436;430;426;424;424;425;428;430;431;429;425;420;415;411;409;410;412;415;418;421;423;426;429;433;436;439;441;442;443;442;441;439;439;439;439;439;438;435;431;427;424;423;424;427;430;434;437;442;446;451;456;462;469;476;482;489;494;500;505;510;515;519;523;528;532;538;544;551;559;567;576;583;588;593;598;603;608;614;621;626;630;633;634;635;635;634;634;635;636;638;641;645;650;656;662;669;678;687;697;707;715;722;727;728;725;719;711;700;691;683;678;674;666;658;648;635;624;614;607;603;600;599;599;599;600;601;601;602;605;607;611;616;622;629;635;642;648;652;655;656;655;654;653;652;653;653;655;657;660;663;664;665;665;664;661;658;654;649;644;639;632;623;611;600;588;577;569;562;557;552;546;540;534;528;523;517;511;505;498;493;488;484;480;475;472;469;467;466;466;467;467;467;468;471;473;476;477;476;473;468;463;458;454;451;451;454;459;465;474;486;497;508;519;528;535;540;543;546;549;550;550;547;542;536;530;522;516;511;506;502;497;493;488;483;478;473;470;467;465;464;466;468;471;474;474;472;470;467;464;460;456;449;442;434;425;417;409;402;398;394;391;387;383;378;372;368;365;363;361;360;358;355;351;346;342;338;335;335;337;342;348;354;362;369;377;385;392;399;405;410;412;412;409;404;397;391;385;381;377;374;370;366;363;360;358;358;360;364;369;375;382;390;397;404;412;419;426;432;437;443;449;453;456;456;457;457;458;459;462;466;470;476;482;489;496;503;508;512;514;514;513;513;511;508;504;500;497;495;492;490;487;483;479;473;468;462;458;454;448;443;437;434;432;432;433;435;439;444;450;456;461;465;466;464;460;456;451;448;445;442;440;438;438;438;439;441;444;448;454;459;465;469;472;472;470;467;463;460;459;460;465;471;478;486;493;500;505;510;516;523;532;543;555;567;577;584;590;593;595;597;599;602;605;609;613;615;617;617;615;611;605;596;585;574;560;546;534;524;517;515;517;521;527;533;539;545;551;555;556;555;551;545;535;524;512;499;488;478;469;464;463;466;474;487;501;516;531;544;556;564;570;574;573;569;563;557;550;545;540;536;530;521;513;507;504;504;508;515;523;534;545;556;568;578;589;598;605;613;618;623;627;630;633;637;642;648;655;662;669
449;442;436;429;424;421;419;419;421;424;426;427;425;420;415;409;406;405;406;408;411;414;416;418;421;423;426;428;431;433;434;435;435;434;433;432;433;433;434;433;430;427;423;421;421;422;425;429;433;437;442;447;453;459;465;474;481;488;495;501;508;514;520;525;530;534;539;542;547;552;559;566;573;581;587;592;597;600;604;609;615;620;625;627;628;628;627;626;625;625;626;627;630;634;639;645;651;658;665;673;682;692;702;710;715;717;716;711;704;696;686;679;673;670;666;660;653;642;630;618;608;601;597;594;592;592;592;592;593;594;596;598;601;606;611;617;624;630;636;641;645;647;647;647;646;646;646;648;650;654;658;662;666;669;672;673;673;670;666;660;653;647;639;630;619;607;595;583;574;567;561;557;552;548;544;539;533;528;523;517;510;504;499;493;488;482;477;471;467;464;462;461;461;460;459;460;463;465;466;467;466;463;460;457;453;451;449;450;452;456;462;470;481;491;502;512;520;527;531;535;540;544;547;549;548;544;538;530;523;516;509;503;498;493;488;483;478;473;469;465;462;460;459;460;463;467;472;474;475;474;472;470;467;463;457;450;441;432;423;414;407;402;397;394;390;385;379;373;368;363;360;358;356;354;351;348;344;340;337;334;334;336;341;348;355;363;371;379;387;395;401;407;409;410;408;404;399;392;385;378;374;370;367;364;361;358;356;356;358;362;367;373;380;386;394;400;407;413;419;426;431;437;443;449;454;458;460;462;464;465;467;470;474;478;484;490;496;501;507;510;512;512;511;509;508;506;502;498;494;492;492;490;488;486;482;477;471;465;459;453;449;445;440;435;431;428;428;429;431;436;441;447;454;459;462;462;460;455;450;446;442;439;437;435;434;434;434;436;439;442;447;452;458;462;466;468;467;465;462;458;455;454;456;460;466;473;481;488;495;500;505;511;519;529;541;553;564;573;579;583;585;587;589;592;596;601;606;609;612;612;612;610;605;599;590;580;569;555;542;529;518;511;508;510;514;519;525;531;537;543;547;549;548;545;539;531;520;508;495;484;474;466;462;462;467;476;489;503;519;534;547;558;565;570;571;568;561;553;546;540;535;531;527;522;513;506;501;499;501;506;514;524;535;547;558;569;578;587;594;600;605;609;613;616;620;625;630;637;645;653;662;670
441;435;429;423;419;416;414;414;416;420;422;422;420;415;410;405;402;401;402;405;407;410;412;413;415;418;420;422;425;427;428;428;429;429;429;429;429;430;430;429;427;424;421;420;420;422;425;429;433;438;443;448;454;461;469;477;485;493;501;508;516;523;529;535;540;545;549;552;556;560;565;571;577;583;588;592;596;599;602;607;612;616;618;620;619;618;617;615;614;615;617;620;624;629;636;643;650;657;664;672;681;690;699;706;709;708;705;698;690;682;674;668;664;661;659;653;646;636;624;613;603;596;592;588;587;586;586;587;588;589;591;594;597;602;607;613;619;624;630;634;636;638;638;637;637;637;639;641;645;650;655;661;666;671;674;676;676;674;670;663;654;646;636;626;615;603;592;582;574;569;564;560;556;553;549;545;540;534;529;523;516;510;504;498;492;485;479;473;467;463;461;459;458;456;455;455;456;457;457;457;456;454;452;450;448;448;447;448;450;454;459;466;475;484;494;503;511;517;522;527;534;539;545;548;549;546;540;533;525;518;511;504;498;492;486;480;474;470;465;462;458;456;454;455;458;462;468;472;475;475;475;473;471;467;462;454;446;436;427;418;411;406;401;397;393;388;382;375;369;363;359;356;354;352;350;347;344;340;336;334;333;336;340;347;355;364;373;381;390;397;403;407;408;407;404;400;394;387;380;374;369;364;361;359;357;355;355;356;360;365;371;378;384;391;398;404;410;415;419;425;430;435;441;447;453;458;461;465;468;470;474;477;481;486;491;496;501;504;507;508;508;507;505;503;501;498;494;490;487;487;488;488;487;486;482;477;471;464;457;451;447;443;439;433;429;426;425;425;428;433;439;445;451;456;458;458;455;450;445;441;437;435;433;431;430;430;431;433;436;440;445;450;455;459;462;464;463;461;458;455;452;451;452;456;462;469;476;483;489;495;500;507;514;525;537;548;558;566;571;574;576;579;582;587;593;598;602;606;607;608;607;604;599;593;584;575;564;550;537;525;514;507;504;505;508;512;517;523;529;534;538;540;540;538;533;526;516;505;492;481;471;464;460;462;468;477;491;505;521;536;548;559;566;568;568;563;554;545;537;532;528;524;519;513;506;499;495;494;497;503;511;521;533;544;554;564;572;580;585;589;594;597;601;605;610;616;624;633;643;652;662;671
432;427;422;417;413;410;408;408;410;413;415;416;414;410;404;400;397;397;399;401;403;405;407;409;411;413;415;417;419;421;422;423;423;424;425;425;426;426;426;425;423;421;419;419;420;422;426;430;435;439;445;450;457;464;472;482;490;499;507;515;524;532;539;546;551;555;558;560;563;566;570;574;578;583;586;589;592;594;597;601;605;607;609;608;607;606;604;604;605;607;611;616;622;628;636;643;650;658;664;672;680;689;696;702;703;701;696;688;679;671;663;658;654;652;649;644;637;627;616;606;598;591;587;583;581;579;580;581;582;584;587;590;593;598;603;608;613;617;621;624;626;626;626;626;626;627;630;633;637;644;650;656;663;669;673;676;676;675;670;662;652;643;633;623;613;602;593;585;579;575;572;568;565;561;558;553;548;543;537;531;524;518;511;504;497;490;482;475;469;465;462;459;457;455;452;451;450;449;448;448;447;445;443;442;442;443;444;445;447;450;455;460;468;476;485;493;501;508;514;520;527;535;542;547;549;546;541;535;528;521;513;506;500;492;485;479;473;468;463;459;456;452;450;450;451;456;461;467;471;474;475;474;473;469;463;457;448;438;429;420;414;408;404;400;396;390;384;376;369;363;358;355;352;350;348;345;342;339;335;333;333;335;340;347;355;365;374;382;390;396;401;403;403;400;396;392;386;380;374;368;363;359;357;355;354;354;355;358;363;369;375;382;390;397;404;410;414;418;421;425;430;435;441;446;453;459;464;469;472;476;481;485;490;494;497;501;503;505;505;503;500;498;496;493;491;488;484;480;479;480;483;485;486;485;482;477;471;464;456;450;447;443;438;432;427;424;422;422;424;429;435;441;447;450;452;451;448;443;439;435;432;430;428;427;426;426;427;430;433;438;443;447;452;455;458;459;459;457;454;450;448;447;448;452;457;464;470;476;482;487;493;500;508;517;528;539;548;555;559;563;565;569;574;581;587;593;598;600;601;601;599;596;591;585;576;566;556;543;531;519;508;502;499;499;501;505;509;514;518;522;526;528;529;528;525;519;510;500;489;477;467;460;458;461;468;478;492;506;522;537;549;559;564;565;563;556;546;537;530;526;522;517;511;504;498;492;489;489;492;498;507;516;528;538;547;556;562;568;573;576;581;585;590;596;602;610;620;631;642;653;664;673
426;421;416;412;408;405;403;402;404;406;408;409;408;404;400;396;394;395;396;398;400;402;403;405;407;409;411;413;415;417;418;418;420;421;422;422;423;423;422;421;420;419;418;418;421;424;428;432;437;442;448;453;460;468;476;486;494;503;512;520;530;539;547;554;559;563;565;566;568;570;572;574;577;579;582;583;586;587;590;593;596;597;598;596;595;594;594;595;598;603;608;616;623;630;638;646;653;661;667;674;681;689;695;699;700;697;691;682;673;664;656;651;647;644;640;634;627;619;609;601;593;587;582;578;575;574;574;575;578;580;583;587;590;595;599;603;607;609;612;614;615;615;616;616;617;618;621;625;629;636;642;649;657;663;669;672;673;671;666;658;648;639;629;620;612;604;597;591;587;584;582;579;576;573;568;563;557;551;544;539;532;525;519;511;503;495;487;480;474;469;466;462;459;455;452;449;446;444;443;441;440;438;436;435;435;437;440;442;444;447;451;456;462;469;477;485;492;500;507;514;523;531;539;545;547;546;542;536;529;523;516;509;502;494;486;479;472;467;462;458;454;450;446;445;445;448;453;459;465;469;472;472;471;468;462;456;447;438;429;421;415;410;405;401;397;391;385;377;370;363;357;354;351;349;347;344;341;337;334;332;332;334;339;346;355;364;373;380;387;392;395;396;394;391;387;383;378;374;369;364;359;356;354;353;353;354;356;360;365;371;377;385;394;402;410;415;419;422;424;427;431;435;441;447;453;460;466;472;477;482;487;492;496;499;501;502;503;502;500;496;491;488;486;484;481;479;475;472;471;473;478;481;484;484;481;477;471;464;457;451;447;443;438;432;427;422;420;419;422;426;431;437;442;444;445;444;440;436;432;429;427;426;425;424;423;423;425;427;431;435;440;444;448;452;454;455;455;453;450;447;444;443;445;448;453;458;464;469;475;480;486;493;500;509;519;528;537;543;548;551;555;560;567;574;582;588;592;594;594;594;592;589;583;576;566;557;546;535;523;513;503;497;494;494;496;499;502;505;509;512;515;517;519;519;517;512;504;495;485;474;464;457;456;460;468;478;492;506;521;536;548;558;562;561;557;549;540;532;526;521;517;512;504;497;491;487;485;486;489;494;501;510;520;529;537;545;551;556;560;564;570;575;582;590;598;608;619;632;645;656;666;674
422;417;412;407;403;399;397;396;397;399;401;402;401;399;396;393;392;393;394;396;398;399;400;402;403;405;408;409;411;412;413;414;416;417;418;418;419;418;418;417;417;416;417;419;422;426;430;435;440;445;451;457;464;472;481;490;499;508;517;526;536;546;554;561;565;567;568;568;569;569;570;571;572;573;574;576;578;579;581;584;585;586;586;585;584;584;586;589;594;601;608;616;625;633;641;648;655;662;668;674;681;688;693;696;697;694;689;679;670;660;651;645;640;636;631;624;618;610;602;595;589;583;578;573;570;568;567;569;572;575;579;583;587;591;595;597;599;601;602;603;603;604;605;606;608;610;612;616;621;627;634;641;649;657;663;667;668;666;661;653;644;636;628;620;614;608;603;600;597;596;594;593;590;586;581;574;567;560;553;547;541;534;526;518;509;501;493;487;481;476;471;467;462;458;453;449;446;443;440;438;436;433;430;429;429;431;435;438;441;443;447;451;457;463;471;478;486;494;502;510;519;528;536;543;545;544;541;535;529;524;517;510;503;495;487;479;472;467;462;457;452;447;443;440;438;440;444;450;456;462;466;468;467;465;460;453;446;438;430;422;416;411;406;402;397;391;384;376;369;362;357;353;350;348;346;343;339;336;333;331;331;333;338;346;354;363;371;377;382;385;386;385;383;380;377;373;369;366;362;358;356;353;352;352;353;355;359;364;369;375;381;388;398;407;415;420;424;427;429;431;434;438;443;449;455;463;470;477;483;489;494;498;501;502;503;502;501;498;493;487;482;479;476;474;473;471;469;466;465;466;470;475;479;480;479;475;469;463;456;451;447;443;438;432;425;420;417;417;419;423;427;432;436;437;437;436;432;429;426;424;423;422;421;420;420;420;422;425;428;432;436;441;445;448;451;452;452;450;446;443;440;439;440;444;447;452;457;462;467;472;477;485;492;500;509;517;525;531;535;540;543;549;556;565;573;579;584;585;585;584;582;578;571;563;554;544;535;524;515;505;497;492;489;489;491;493;495;497;499;502;504;507;509;510;509;505;497;489;480;470;461;454;453;458;466;477;491;505;520;534;546;555;557;555;549;541;532;525;521;516;511;505;497;491;486;483;482;483;486;491;497;505;513;521;529;535;540;545;550;555;562;569;578;587;596;608;621;635;649;660;668;673
421;415;410;404;400;395;393;392;392;393;395;396;396;395;393;391;391;392;394;396;397;398;399;399;401;402;404;406;407;408;409;411;412;413;414;414;414;414;413;413;414;415;416;419;424;428;432;437;442;448;454;461;469;477;486;495;503;512;521;530;540;550;558;564;567;568;567;566;566;565;564;564;564;564;565;566;568;570;572;573;575;575;575;575;575;577;581;586;592;600;608;617;626;634;643;649;656;662;667;673;679;685;690;693;695;693;689;680;670;659;650;642;636;630;624;617;610;603;597;591;585;580;575;569;565;562;562;563;566;570;574;579;583;587;590;591;592;593;593;593;594;595;597;599;600;603;605;609;613;619;626;634;642;650;657;662;663;661;656;649;642;635;628;623;618;614;611;609;608;607;607;606;604;599;592;584;576;568;561;555;549;542;533;524;515;507;500;494;488;483;478;472;467;461;456;452;448;445;441;438;434;430;427;424;424;427;431;435;437;440;444;448;454;460;467;475;483;492;500;509;518;527;535;541;543;542;539;533;528;522;516;510;503;495;487;480;473;468;462;457;452;446;441;436;433;433;436;441;447;454;459;462;462;460;456;451;444;437;430;423;417;411;406;402;396;389;383;375;368;361;356;352;349;346;344;340;337;334;331;330;330;333;338;346;354;362;368;372;375;376;376;375;373;370;367;364;361;358;356;354;353;352;353;354;356;359;363;369;374;380;385;391;400;409;417;423;428;432;434;437;440;443;448;453;460;468;475;483;490;495;500;503;504;503;502;500;496;491;485;480;475;471;469;468;467;467;465;463;461;461;463;467;472;475;474;471;466;461;455;450;446;442;437;431;424;419;415;415;416;420;424;427;430;431;431;429;426;423;421;419;419;418;418;417;417;418;420;423;426;429;433;437;441;445;448;450;449;447;443;439;436;435;437;439;443;447;451;455;460;464;470;477;484;492;500;507;514;520;525;529;533;539;546;554;562;569;573;574;574;572;569;565;558;550;541;533;524;515;507;498;491;487;484;485;486;488;490;491;492;494;496;498;500;502;501;497;491;483;475;466;457;451;451;456;465;476;490;504;518;532;543;550;552;548;542;533;526;519;515;510;504;498;491;486;482;480;481;482;485;489;495;501;509;516;523;529;534;539;545;551;559;568;578;588;598;610;624;639;654;663;669;672
422;415;409;402;396;391;388;387;387;388;390;391;391;391;390;390;391;392;394;395;396;397;397;397;398;399;400;402;403;404;405;406;407;408;409;409;409;409;409;410;411;413;416;420;424;429;433;439;444;450;457;464;473;482;491;500;508;516;525;533;543;551;558;563;564;564;562;561;559;557;555;554;553;553;554;555;557;559;561;562;564;565;566;567;569;572;577;583;590;598;607;616;625;633;641;648;653;659;664;669;675;680;685;689;692;693;689;681;671;660;649;641;633;626;619;611;604;598;591;586;581;576;571;566;561;557;556;557;560;564;568;574;578;581;584;584;584;583;583;583;584;586;589;591;594;596;599;602;606;612;619;627;636;644;651;657;659;657;653;647;641;636;631;627;624;622;620;619;619;619;619;618;615;610;603;593;584;576;569;564;557;549;541;530;521;513;506;502;496;491;485;479;473;467;461;456;453;449;445;440;435;429;424;421;420;423;427;431;434;437;441;445;451;457;464;473;481;491;500;509;518;527;535;540;542;540;536;531;525;520;514;509;502;494;487;481;475;470;464;459;452;446;439;433;429;427;428;431;437;444;450;454;456;455;453;449;443;437;431;425;419;413;407;402;395;388;381;374;367;361;355;351;347;344;341;338;335;332;330;329;330;333;339;346;353;360;365;367;368;368;367;365;363;360;358;355;353;351;350;350;351;353;355;358;361;365;371;376;382;386;390;396;403;410;418;425;431;436;439;442;446;450;455;460;467;474;481;489;495;500;503;505;505;503;500;496;491;485;479;473;469;465;463;462;463;463;462;460;457;455;456;459;463;466;467;465;462;457;452;447;444;440;435;429;422;417;413;412;414;417;420;423;425;425;424;423;420;417;416;415;415;415;414;414;415;416;418;421;423;427;431;434;438;442;445;447;447;444;440;436;433;432;433;435;438;442;446;449;453;457;462;469;476;484;492;498;505;511;515;519;522;527;534;541;549;555;558;560;560;558;554;550;543;536;528;521;514;506;499;491;485;481;479;479;481;483;484;485;485;486;488;490;492;493;492;488;482;475;467;460;452;448;449;455;464;476;489;503;517;530;539;545;545;541;534;526;518;512;507;502;496;490;484;480;478;478;480;482;485;490;495;500;507;513;520;526;531;537;543;551;560;569;580;591;601;614;627;642;656;665;668;669
423;416;408;400;393;387;384;383;383;384;386;387;387;387;388;389;390;392;394;395;396;396;395;395;395;396;397;398;399;400;401;402;402;403;404;404;405;405;406;407;409;412;416;420;424;429;433;439;444;450;458;467;477;487;496;504;511;519;527;534;542;549;554;557;557;556;554;552;549;547;544;542;541;541;542;544;546;548;550;552;554;556;559;561;565;569;574;580;587;595;603;611;620;628;636;642;647;653;657;662;668;674;680;686;691;692;690;683;673;661;650;640;632;623;616;608;601;594;588;583;578;573;569;563;557;553;551;551;553;557;562;568;572;575;577;577;576;575;574;574;576;578;581;584;587;589;592;596;601;607;614;623;632;640;648;653;656;656;652;648;643;639;636;633;632;630;630;629;629;629;628;627;624;618;610;600;591;584;577;571;565;556;547;536;526;518;512;508;503;497;491;485;479;473;467;462;458;455;450;444;437;430;423;419;418;421;424;427;430;434;438;442;448;454;462;472;481;492;502;511;521;529;535;539;540;538;534;529;523;518;512;507;501;494;488;482;477;473;468;462;455;447;439;432;426;423;422;424;429;435;441;446;449;450;449;447;443;438;433;427;421;415;408;402;395;388;380;373;366;360;354;349;345;341;339;335;333;330;329;328;330;334;340;346;352;358;362;363;362;361;359;357;356;353;351;348;346;346;346;348;351;354;359;363;368;373;380;385;391;395;398;402;407;413;420;427;433;439;443;448;452;457;462;467;473;479;485;492;497;500;503;503;503;501;497;491;485;479;473;469;465;461;459;458;459;460;460;457;455;452;450;451;455;458;459;459;456;453;448;444;440;437;433;427;420;414;410;409;411;414;417;420;421;421;420;418;416;414;412;412;412;411;411;412;413;414;416;419;422;425;428;432;436;440;443;444;444;442;438;434;431;429;430;432;435;438;441;444;448;451;455;462;468;476;485;491;497;502;506;510;513;517;522;528;535;540;543;545;545;543;540;535;529;523;517;511;506;499;492;485;478;475;474;475;476;478;480;480;479;480;481;482;483;483;482;479;474;467;460;453;448;446;447;454;464;476;490;503;516;528;536;540;539;534;526;519;511;505;499;493;488;482;478;476;475;477;480;483;487;491;496;502;508;514;520;527;532;539;545;553;563;573;584;596;606;619;631;645;657;664;666;665
424;416;407;397;389;383;380;379;379;380;382;383;383;384;385;387;389;391;393;394;394;394;393;393;393;394;394;395;396;397;397;398;398;399;399;400;401;402;403;405;408;411;416;419;423;428;432;437;443;449;458;467;478;489;498;507;514;520;527;533;539;544;547;548;548;547;544;541;538;535;532;530;530;530;532;534;536;538;541;544;547;551;554;558;563;567;572;577;583;590;597;605;613;621;628;634;639;645;650;655;662;669;677;683;689;692;691;685;675;662;650;640;630;622;614;606;599;592;585;580;575;571;566;560;554;550;547;546;548;551;556;561;565;568;570;569;567;565;565;565;568;570;574;576;579;582;586;590;596;603;611;619;629;637;645;652;656;656;653;650;646;644;641;640;640;639;639;638;637;637;636;634;629;622;614;605;597;590;584;578;571;562;552;541;531;523;517;513;508;502;497;490;485;480;474;470;465;461;455;448;440;431;423;418;416;418;420;424;427;431;436;440;445;452;460;470;481;492;503;513;523;530;536;539;539;536;532;527;521;516;510;505;500;495;490;486;482;478;473;467;459;450;441;432;425;421;418;418;421;427;432;438;442;444;445;444;442;439;435;429;423;417;410;403;395;388;380;372;365;359;353;348;343;339;337;334;331;330;328;327;329;334;340;346;351;356;358;358;357;355;353;351;349;347;345;343;342;342;344;347;351;358;364;370;376;383;389;395;400;404;407;410;414;418;424;429;435;441;446;452;458;464;469;474;478;483;487;492;495;497;498;499;498;496;492;486;480;474;469;465;461;458;456;455;455;457;457;455;452;449;446;445;447;450;452;452;451;448;444;440;437;433;430;424;418;412;408;406;408;411;414;416;417;417;417;415;413;410;409;408;408;408;408;409;410;412;414;417;420;423;426;430;433;437;440;441;441;439;435;431;429;428;428;430;432;435;438;440;443;446;449;455;461;469;477;484;490;494;497;501;503;507;511;516;521;525;529;531;531;529;526;522;517;513;508;503;497;491;484;477;472;469;469;470;472;474;475;475;474;473;473;473;473;473;472;469;465;459;453;448;444;444;447;455;465;478;492;504;516;526;533;535;533;527;519;511;504;497;492;486;481;476;473;473;473;476;480;484;488;493;499;504;511;516;522;529;535;542;549;558;568;579;590;602;613;625;636;647;657;662;663;661
420;413;403;393;385;379;376;375;376;377;378;378;379;381;383;385;388;389;391;391;391;390;390;390;390;391;392;393;393;394;394;394;394;395;396;398;399;401;403;405;408;411;415;418;422;426;430;435;440;446;455;465;476;487;497;505;512;518;523;527;532;535;537;538;538;536;534;531;528;525;523;521;521;523;525;527;530;533;536;540;544;549;554;558;564;568;572;576;581;586;591;598;606;613;621;627;632;638;643;650;657;666;675;682;688;692;691;684;674;662;649;639;630;621;614;606;599;591;584;578;573;568;564;558;552;546;543;541;542;545;549;554;558;561;562;561;559;556;556;557;559;562;565;568;571;575;579;585;591;600;608;617;627;636;644;652;656;657;656;653;651;649;647;647;647;646;646;645;644;643;641;637;631;624;617;609;602;596;590;584;577;567;557;546;536;528;521;517;512;507;502;496;492;487;482;478;472;466;460;452;443;433;424;418;415;415;417;420;424;429;433;437;442;449;457;468;479;492;503;514;523;530;534;536;536;533;530;525;520;515;510;506;501;497;493;489;486;483;478;471;463;453;443;433;425;420;416;415;416;419;424;429;433;437;439;439;439;437;435;430;425;419;412;405;396;387;379;371;364;358;352;347;342;338;335;332;330;329;327;326;328;333;340;345;349;352;354;353;351;349;347;346;344;342;340;339;339;340;343;347;353;361;368;376;383;390;397;402;407;412;416;419;423;426;430;434;440;446;451;457;463;469;474;477;481;483;486;488;489;490;491;492;492;490;487;482;477;471;466;463;459;456;453;451;451;452;453;452;449;446;442;440;441;443;445;446;446;444;441;438;434;430;426;421;414;409;404;403;405;408;411;414;415;415;414;412;410;407;405;404;404;404;405;406;407;410;413;416;419;421;424;427;431;434;436;437;437;435;432;430;427;427;427;428;430;433;435;437;439;441;444;449;455;462;469;476;482;486;489;492;494;497;500;504;508;512;515;518;519;518;516;512;508;504;499;494;488;482;476;470;466;464;465;466;469;470;471;470;468;466;465;464;463;462;461;459;456;452;448;444;442;443;447;456;467;479;493;506;517;525;529;530;526;520;512;505;497;490;485;479;475;472;471;471;473;477;481;486;491;497;502;508;514;520;526;532;539;546;554;563;574;585;597;609;619;631;640;649;655;658;659;656
414;407;398;389;382;376;373;372;372;373;374;375;376;378;380;383;386;387;387;387;387;386;386;386;386;387;388;389;390;391;391;391;392;393;395;397;399;401;404;406;409;411;414;417;421;424;427;431;436;442;451;460;471;482;491;499;505;511;516;520;523;526;527;528;528;527;525;522;519;517;516;516;517;520;523;525;529;532;536;541;546;552;557;562;567;571;575;578;581;585;589;595;602;609;616;622;628;634;640;647;655;665;674;682;688;691;689;682;672;660;648;638;629;621;615;607;599;591;583;576;570;566;561;555;550;544;540;537;538;540;544;548;552;554;554;552;550;548;548;549;551;554;557;560;564;568;574;581;588;597;606;615;626;635;644;652;657;659;659;657;655;653;652;651;652;651;651;649;648;645;642;637;631;624;617;611;605;601;595;589;581;570;560;548;539;532;526;521;517;512;508;503;499;495;491;486;479;473;465;456;446;435;426;419;414;412;413;416;421;425;430;434;440;446;455;465;477;490;502;512;521;527;530;532;531;529;526;523;519;515;511;507;503;499;496;493;489;486;481;475;466;455;445;434;426;420;415;413;412;414;416;420;424;428;431;432;434;434;433;431;427;421;413;405;396;387;378;370;363;357;351;346;341;338;335;332;329;327;325;325;327;332;338;342;346;348;348;348;346;345;343;342;341;339;338;337;338;340;343;348;355;363;371;379;388;395;401;407;411;417;422;427;431;434;438;442;446;451;456;462;467;472;476;478;480;481;482;482;482;482;483;484;485;485;484;480;475;470;466;462;458;454;450;448;448;448;449;448;446;442;438;435;435;437;439;442;443;442;440;436;433;428;423;417;411;405;401;400;402;405;409;412;413;414;412;410;407;404;401;400;400;400;401;403;405;408;411;415;418;420;423;425;428;431;433;434;433;432;430;428;427;426;427;428;430;432;433;434;435;437;440;444;449;456;462;468;474;478;481;484;485;487;490;493;497;501;504;508;510;510;508;505;501;496;491;485;479;473;468;464;461;461;461;463;465;467;467;466;463;460;458;455;454;453;452;451;449;446;443;441;440;442;447;456;467;480;494;506;515;522;525;524;520;514;506;499;491;485;479;475;471;470;469;471;475;479;484;489;495;501;506;512;518;524;530;537;543;551;559;568;579;591;604;616;626;636;644;649;652;654;653;651
404;398;390;383;377;373;370;369;369;369;370;371;373;375;378;380;383;383;383;382;382;381;381;382;382;383;385;386;386;387;388;389;390;392;395;398;400;403;405;407;409;411;414;417;420;422;424;427;432;437;445;454;464;473;481;489;495;501;506;509;513;515;517;519;519;518;517;515;513;512;513;515;518;521;525;528;532;536;541;547;553;559;564;569;574;578;581;584;586;589;593;598;603;609;616;622;628;635;641;648;657;666;675;682;686;687;684;677;667;656;645;637;629;622;615;607;599;590;581;574;567;563;558;553;547;542;537;534;534;535;538;542;545;546;546;544;542;540;540;541;543;545;548;552;557;562;569;576;584;594;603;613;624;633;643;651;657;660;661;660;658;656;654;653;653;652;651;649;646;643;638;633;627;621;617;612;608;604;598;592;583;572;562;551;543;536;531;527;523;520;516;512;508;504;499;494;487;479;471;460;449;438;428;420;414;411;410;413;417;421;426;431;437;443;452;462;473;485;497;507;516;521;524;525;524;523;521;519;517;516;513;510;506;502;499;495;491;487;482;475;466;456;446;435;427;421;415;412;410;410;410;411;414;417;420;423;425;427;429;428;425;420;412;404;394;384;376;368;362;356;350;346;341;337;334;331;328;325;323;323;325;329;335;338;341;343;342;342;341;340;339;338;338;337;337;338;339;342;347;352;357;365;372;380;388;395;402;407;412;418;425;432;437;441;446;450;454;458;462;467;470;473;475;476;476;476;475;474;473;473;474;476;479;481;481;479;475;471;466;462;457;452;447;444;443;443;443;443;441;437;433;430;430;432;434;437;440;440;438;435;431;426;420;414;407;401;398;397;398;402;406;409;412;412;410;407;404;400;398;396;396;397;398;400;403;406;410;413;416;419;421;423;425;428;429;429;429;428;427;426;426;427;428;430;431;431;431;431;432;434;436;440;444;449;455;461;466;470;473;475;476;477;479;481;485;489;494;498;501;502;501;498;493;487;481;474;469;464;460;458;457;457;458;460;461;463;463;462;458;454;451;448;447;446;445;444;443;441;439;437;437;440;446;455;466;478;491;502;511;516;518;517;513;507;500;493;486;480;475;471;470;469;471;474;479;484;489;495;501;506;512;517;523;529;535;542;548;556;564;574;585;597;610;622;632;640;644;647;648;648;647;645
393;388;383;378;373;370;368;367;367;367;367;369;371;373;376;378;379;379;379;378;377;377;377;378;379;380;381;382;383;385;386;388;390;392;396;399;402;405;407;409;410;412;414;416;419;420;421;425;428;433;440;447;455;463;470;476;483;489;494;498;502;506;509;511;512;511;510;509;508;509;512;516;520;525;530;534;539;544;549;555;561;568;573;578;583;586;589;592;594;597;600;604;609;614;620;627;633;640;646;653;661;670;677;682;683;682;676;668;659;650;641;635;628;622;615;607;598;589;579;571;565;560;556;551;545;540;535;532;530;531;534;536;539;540;539;537;535;533;533;534;536;539;542;546;551;558;565;573;581;591;600;610;621;631;642;650;656;660;661;661;659;657;655;653;652;650;648;644;640;636;630;625;620;617;614;612;609;605;599;592;583;573;563;553;546;541;536;534;531;529;526;522;518;513;507;500;493;485;476;465;454;442;431;422;415;410;409;410;413;417;422;428;434;441;450;459;469;480;491;501;509;514;516;516;516;515;515;515;515;515;514;512;508;504;500;496;491;487;481;474;465;455;446;437;429;423;417;414;411;408;406;404;405;407;410;413;416;419;421;421;420;416;409;400;391;381;373;366;361;355;350;345;341;337;333;329;326;323;321;321;323;327;331;334;336;337;337;337;336;336;336;336;336;337;338;340;343;347;352;357;361;366;372;379;386;393;399;405;410;417;425;434;441;447;452;456;460;463;466;469;471;473;474;473;472;470;468;466;465;465;467;470;474;477;479;479;476;472;468;462;456;450;445;440;438;437;437;437;435;432;429;426;426;427;430;434;437;438;437;434;429;424;418;411;405;399;395;394;396;399;403;407;410;410;408;405;401;398;395;394;393;394;396;398;402;405;408;412;415;417;419;421;423;425;425;425;425;425;425;426;426;428;429;431;432;430;429;428;430;431;433;436;440;444;450;454;459;463;465;466;467;468;469;471;475;480;485;490;493;495;494;491;485;479;472;465;460;456;454;453;454;455;456;457;458;459;459;457;454;450;446;443;442;441;441;441;439;438;436;435;435;438;444;453;463;474;486;495;504;509;510;509;506;501;494;488;482;476;472;469;469;471;474;479;485;491;497;503;508;513;517;522;529;535;541;547;553;561;569;579;591;603;615;626;634;640;643;643;643;641;641;641
381;378;375;372;369;367;366;365;364;364;365;367;369;371;373;374;375;375;374;373;373;373;374;375;376;377;378;379;381;383;385;388;390;393;396;400;403;406;408;410;411;413;415;417;419;420;422;425;428;432;437;443;449;455;460;466;471;477;482;487;492;496;500;503;504;504;504;503;504;507;511;517;523;529;535;540;546;551;557;564;570;577;582;587;591;594;598;601;604;607;610;614;619;624;630;635;641;648;653;660;668;674;679;680;677;673;666;657;649;642;636;631;626;620;613;604;595;586;576;569;562;557;553;548;543;537;532;529;527;527;529;531;533;533;532;530;528;527;527;528;530;533;537;541;547;554;562;570;579;588;597;607;617;628;638;647;654;658;659;658;657;655;652;649;646;642;639;635;630;625;619;614;611;609;609;609;608;605;599;592;583;574;565;557;551;547;544;543;541;540;538;533;528;522;514;506;498;490;481;471;460;447;436;426;417;412;408;407;409;413;418;424;431;438;446;455;464;475;485;494;501;505;507;507;507;507;508;509;511;513;514;513;510;506;502;497;491;486;480;473;465;456;448;440;434;428;423;418;413;408;404;400;398;398;400;402;405;408;410;411;411;407;401;394;385;377;370;364;359;354;348;344;339;335;331;327;323;320;319;319;321;323;327;330;331;332;332;332;333;333;333;334;335;338;341;345;349;354;360;364;367;370;374;379;385;390;397;403;409;417;426;436;444;450;456;460;463;466;468;469;471;472;472;470;467;463;460;458;457;458;461;465;470;474;476;478;477;474;469;463;456;449;442;437;433;431;430;429;428;426;423;421;421;423;426;430;433;434;434;431;427;421;415;409;403;397;393;392;393;396;401;404;407;407;406;403;399;395;393;391;390;391;394;397;401;404;407;410;412;414;417;419;420;421;421;420;420;421;422;425;427;428;431;432;431;428;427;426;427;428;429;432;435;439;444;448;452;455;456;457;457;458;459;461;465;470;475;480;484;486;485;482;476;470;463;457;452;450;449;449;451;452;453;453;453;453;453;451;448;444;441;438;437;438;438;438;436;434;432;431;432;436;442;450;459;468;478;486;493;498;500;499;497;493;487;482;476;471;468;467;469;473;478;485;492;499;506;512;516;521;525;530;536;542;548;554;560;567;575;585;597;609;620;628;634;638;639;638;636;634;635;636
372;370;368;367;366;365;364;363;363;363;364;365;367;369;370;371;371;371;370;370;370;371;373;374;375;377;378;379;381;383;386;388;391;393;396;399;403;406;408;411;413;414;416;418;420;422;425;428;431;435;438;442;446;450;453;458;463;468;473;478;483;488;493;496;498;498;499;499;501;505;511;518;525;533;540;546;552;558;564;571;577;583;588;593;597;601;605;609;613;617;621;626;631;635;641;646;652;657;662;668;674;678;679;676;671;663;655;646;639;634;629;626;621;616;609;600;592;582;573;566;560;555;551;546;541;535;530;526;524;524;525;527;528;528;527;525;524;523;523;524;527;530;534;539;545;551;559;568;576;585;594;603;614;624;635;644;650;654;655;654;652;649;645;640;636;632;628;623;618;613;607;604;602;602;603;604;605;603;598;591;583;575;568;562;558;555;553;552;551;550;548;543;537;529;519;511;502;494;486;475;465;452;440;430;421;414;409;406;406;409;414;420;427;435;443;452;460;470;479;487;494;498;500;499;499;499;501;503;506;509;512;513;512;508;503;498;492;486;479;472;465;458;452;445;440;435;429;424;418;411;404;398;394;393;393;394;395;397;399;400;399;397;392;386;379;372;367;362;357;352;347;343;338;334;329;325;321;319;318;318;319;320;323;325;327;328;328;329;330;331;332;334;336;341;345;351;357;363;369;373;374;375;377;380;384;389;395;401;408;417;427;437;445;452;458;462;464;467;468;468;469;470;469;466;462;458;454;451;451;452;456;461;466;471;474;477;477;475;470;465;457;449;441;434;429;426;423;422;421;420;418;417;417;420;423;428;430;432;431;428;424;419;413;408;401;396;392;390;391;394;398;402;404;404;403;400;397;393;391;389;388;390;393;397;400;403;406;408;410;412;414;416;417;417;417;416;416;418;420;424;426;429;431;432;430;427;425;424;424;424;425;428;431;435;439;443;446;448;449;450;450;451;452;454;458;462;468;473;477;478;478;474;468;462;456;451;447;445;445;446;447;449;450;449;449;448;447;445;442;439;436;435;434;435;436;435;433;431;429;428;430;434;440;447;455;463;471;477;484;488;490;490;489;485;481;476;471;467;465;465;469;475;483;490;498;506;513;520;524;529;533;538;544;549;555;561;567;574;581;591;603;614;623;629;633;635;634;631;629;628;630;634
364;363;362;362;362;362;362;361;360;360;361;363;365;366;367;367;367;367;367;368;369;371;372;374;376;377;379;380;382;385;388;390;392;394;397;399;402;406;409;412;414;416;418;420;423;427;431;435;439;442;444;446;448;450;452;456;459;463;467;472;477;482;486;490;492;494;495;496;499;503;510;518;526;534;542;549;556;561;568;574;580;586;591;596;600;604;609;614;620;626;631;636;642;646;652;657;662;667;671;675;678;679;676;670;662;653;644;635;628;624;621;618;613;608;602;594;586;578;569;563;557;553;548;543;538;532;527;523;520;520;521;522;523;523;522;520;519;519;519;521;524;527;531;536;542;548;556;564;572;582;590;599;609;619;629;637;644;648;648;646;642;638;633;628;623;619;615;610;606;600;595;592;591;592;595;598;600;600;597;592;585;579;574;570;566;564;563;563;562;561;558;552;544;534;523;514;505;497;490;480;470;457;445;435;425;418;411;407;405;406;409;414;422;429;437;446;455;464;473;481;487;491;492;491;491;492;494;497;501;505;509;512;513;510;506;501;495;489;481;475;469;463;458;453;448;443;438;432;424;415;407;400;394;390;388;388;388;388;389;389;388;386;382;378;373;368;364;359;355;350;345;341;337;332;328;323;320;318;317;317;317;318;319;321;323;324;325;327;328;330;332;335;339;345;351;358;366;373;379;382;384;384;384;386;388;392;398;403;411;420;429;438;446;452;458;462;464;465;465;466;466;466;465;463;459;454;449;445;444;446;450;455;461;466;471;474;476;474;471;465;457;449;440;432;426;421;418;416;415;414;413;412;413;416;420;425;427;428;427;423;420;415;411;406;400;395;391;389;390;392;396;399;401;401;399;397;394;391;388;386;386;388;392;396;399;402;403;405;406;408;410;412;413;413;412;412;412;415;418;422;425;428;430;430;428;425;423;422;420;420;421;423;426;429;433;437;440;441;442;443;443;443;445;447;451;455;460;464;468;470;469;466;461;455;450;445;442;440;440;441;443;444;445;444;444;442;441;439;436;434;432;430;431;431;432;431;429;426;425;425;427;433;439;445;451;458;464;469;474;478;480;480;479;476;473;469;465;462;461;464;469;477;486;494;503;511;519;526;532;537;542;547;553;558;564;570;575;582;590;600;611;621;627;631;631;631;628;624;622;623;627;632
359;359;359;359;359;359;359;358;358;358;359;361;362;363;363;364;364;365;366;368;370;372;374;375;377;379;380;382;385;387;390;392;393;395;398;400;403;406;409;413;416;418;421;423;428;433;438;444;448;451;454;455;455;456;456;458;461;463;466;470;474;478;482;486;489;491;493;495;498;502;508;516;524;533;541;548;555;561;568;574;579;585;590;595;600;605;611;617;624;631;638;644;650;655;660;666;671;675;677;679;680;678;672;664;654;644;635;626;620;616;612;608;604;599;594;587;580;573;566;560;554;550;545;540;535;530;524;521;518;517;517;519;519;519;518;517;516;516;517;519;522;525;529;533;539;544;552;560;569;578;586;595;605;614;623;631;636;639;639;636;632;626;620;615;610;606;603;600;595;590;586;583;582;584;588;593;597;598;597;593;589;585;581;578;575;573;572;572;572;570;565;557;548;536;525;516;507;500;493;484;473;462;450;439;429;421;414;409;405;404;406;410;416;423;431;440;449;458;467;475;481;484;485;485;484;485;488;491;496;501;507;511;514;513;509;505;499;492;485;479;474;469;465;460;456;452;446;439;430;421;412;403;396;391;387;385;383;382;382;381;379;377;374;372;368;364;361;357;353;348;344;340;336;332;327;323;320;318;317;316;315;315;316;318;320;322;323;325;328;331;334;338;343;349;356;365;373;380;386;391;393;393;393;393;395;398;403;408;415;424;432;440;447;452;457;459;461;461;461;462;462;463;463;461;457;451;445;441;440;441;445;451;457;463;468;472;473;473;470;465;458;450;441;432;425;419;415;412;410;409;408;408;410;414;418;422;425;425;423;420;416;412;408;404;399;394;391;389;389;391;394;396;397;397;395;393;391;388;386;384;385;388;392;395;398;400;401;402;403;404;406;407;408;408;408;408;410;413;417;421;424;427;428;428;426;424;421;419;417;416;416;418;421;424;428;431;434;436;437;437;437;438;440;442;446;450;454;458;462;463;463;460;455;450;446;441;438;436;436;437;438;439;440;439;439;437;436;434;432;430;428;427;427;428;427;426;424;422;421;422;426;432;437;443;449;455;460;464;467;469;471;471;470;468;466;463;459;457;458;462;469;478;489;498;506;515;523;531;538;544;549;555;561;566;572;578;584;591;599;608;619;627;631;632;630;627;623;619;618;620;626;632
355;355;355;355;355;355;355;354;354;355;356;358;359;359;360;361;362;363;366;369;371;374;375;377;379;381;383;385;387;390;392;394;396;398;401;403;406;409;412;416;419;421;425;428;433;439;447;454;459;463;466;467;466;466;466;466;468;469;471;473;476;479;482;486;489;492;495;497;500;503;509;515;522;531;538;545;552;558;564;570;575;581;587;592;599;604;611;618;626;634;641;648;655;660;666;672;676;680;681;681;679;674;666;656;646;636;627;618;611;606;601;597;593;588;584;578;572;567;560;555;550;545;541;536;531;526;522;518;515;514;514;514;515;515;514;513;512;512;514;516;519;522;526;529;534;539;546;554;563;572;581;589;598;607;615;622;626;628;627;624;618;612;606;601;597;594;592;589;585;580;576;573;572;575;580;587;593;597;598;597;595;592;589;586;583;580;580;580;579;576;569;559;548;536;525;516;508;502;496;487;477;465;454;444;434;426;418;411;406;403;403;405;409;415;423;432;441;451;460;467;473;476;477;477;477;479;482;487;493;499;505;511;515;515;513;509;504;498;491;485;480;475;471;467;463;459;453;446;437;427;418;408;400;394;389;385;382;380;378;376;374;372;370;367;365;362;359;355;351;347;343;339;335;331;327;323;320;318;316;314;313;313;313;315;318;320;323;326;329;333;337;342;348;355;363;371;379;387;393;399;402;403;404;404;406;408;412;417;423;430;436;443;449;453;456;456;456;456;456;456;458;459;460;458;454;447;441;437;435;436;440;445;452;458;464;468;470;470;468;463;457;450;441;432;424;418;412;409;407;405;404;405;407;411;415;419;421;421;419;415;411;408;405;401;397;393;390;388;388;390;392;393;393;392;391;389;387;385;383;382;384;387;390;393;395;396;397;398;399;400;401;402;403;403;404;405;407;410;414;418;422;424;425;425;423;420;417;414;412;411;411;413;415;418;422;425;428;430;430;431;431;432;434;436;440;444;447;451;454;455;455;452;448;444;440;436;433;431;431;431;432;434;434;434;434;433;431;430;428;426;424;423;423;423;422;420;419;418;419;421;425;431;436;442;447;451;455;458;460;461;461;461;461;460;458;456;454;454;457;462;470;479;490;499;508;516;524;533;540;548;554;560;566;573;579;586;593;601;609;618;627;632;634;632;628;623;618;616;616;619;625;632
353;352;352;352;352;351;350;350;351;352;353;355;356;357;358;359;361;363;367;370;373;376;378;380;381;383;385;387;390;392;394;397;399;402;405;408;411;414;417;420;422;425;429;432;438;446;454;462;469;474;478;479;479;478;478;478;479;479;481;482;483;484;486;489;493;496;499;502;504;507;510;515;521;527;534;540;547;553;559;565;571;577;582;589;596;602;610;617;625;633;641;648;655;661;668;674;678;681;682;679;675;669;659;650;640;630;621;612;605;598;592;587;582;578;574;570;565;560;555;550;545;540;536;531;527;524;520;516;513;512;511;511;511;511;510;510;509;509;511;513;516;519;523;526;530;534;541;549;557;566;575;583;591;599;607;613;616;617;616;612;606;600;594;590;587;585;583;581;577;573;568;565;564;568;574;582;590;596;599;600;600;599;597;593;589;586;584;584;581;576;568;556;545;534;523;516;509;503;498;489;479;467;456;447;437;429;422;414;408;403;401;401;404;409;415;424;434;444;453;461;466;469;470;471;472;475;479;484;491;497;504;511;515;517;516;513;509;503;497;491;486;481;477;472;468;463;457;451;442;433;424;415;407;400;393;388;384;380;377;374;372;370;368;366;363;361;358;353;349;345;342;338;335;331;328;324;321;318;315;313;311;311;312;314;317;320;324;327;332;337;342;347;353;360;368;376;384;391;398;404;409;412;414;416;417;419;422;425;430;436;441;447;451;454;454;453;451;450;450;451;453;456;457;456;451;445;438;433;431;432;436;441;448;455;460;465;467;467;465;461;456;449;441;432;425;418;413;409;406;404;402;402;404;408;413;416;419;418;415;411;407;403;401;398;394;391;388;387;387;388;390;390;389;388;386;385;383;382;380;381;382;385;388;391;392;393;394;394;395;396;397;398;399;400;401;403;405;408;412;416;419;421;421;420;419;416;413;410;408;407;407;408;411;414;417;420;423;425;426;426;426;427;429;431;435;438;442;445;447;448;448;446;443;440;436;432;429;427;426;427;428;429;430;430;430;430;429;427;425;423;421;420;419;418;417;415;415;415;417;420;425;430;435;440;445;449;452;454;454;454;454;454;454;453;453;452;451;452;456;463;471;481;491;499;508;515;524;532;540;547;554;561;568;576;584;592;600;609;618;626;632;635;635;631;626;620;616;614;615;619;626;632
349;349;348;348;347;347;346;346;348;349;351;352;354;355;357;358;361;364;368;372;375;378;380;382;384;386;388;390;392;395;397;400;403;407;411;415;418;422;424;426;429;431;434;438;443;451;459;469;477;484;489;491;493;493;492;493;493;494;495;496;495;495;496;498;501;504;508;510;512;513;515;518;521;525;530;535;541;547;553;560;566;572;578;585;593;600;607;615;622;631;638;646;653;660;667;673;678;680;680;677;671;663;653;644;634;624;616;606;598;590;583;578;573;569;565;561;557;553;548;543;539;534;530;526;523;520;518;515;511;509;507;506;506;506;506;505;505;505;507;509;512;515;518;521;525;528;534;542;549;558;566;574;582;589;596;601;604;605;603;599;594;588;583;579;577;575;574;572;569;564;560;556;556;560;567;577;586;594;600;603;605;605;604;599;594;589;586;584;579;571;562;550;539;529;520;513;508;503;497;489;479;468;457;448;439;432;424;417;410;404;400;399;399;402;408;416;425;436;445;452;458;461;462;464;466;471;476;482;490;497;504;511;516;519;519;517;513;508;502;496;491;486;481;476;471;467;461;455;448;440;432;423;416;408;401;395;389;384;380;376;373;371;369;367;364;361;358;353;349;345;341;337;334;331;328;325;322;318;314;311;309;309;311;314;317;322;326;331;337;342;348;354;360;367;373;380;388;395;403;410;416;421;425;427;428;429;431;433;437;441;446;450;454;454;452;449;446;445;444;446;449;452;453;452;447;440;434;429;427;428;432;438;444;451;457;461;462;462;460;456;452;446;439;431;424;418;413;409;406;403;400;400;401;405;409;413;415;414;411;406;402;398;396;394;391;388;386;385;386;387;387;387;385;384;382;381;380;379;378;379;381;383;386;388;389;389;390;391;391;392;394;395;395;396;397;399;402;405;408;411;414;415;415;415;413;410;407;405;403;403;403;404;406;409;412;415;418;419;420;421;421;422;423;425;428;431;434;437;438;439;439;438;436;434;430;427;424;422;422;422;424;425;426;426;427;427;426;425;423;421;418;416;415;413;412;411;411;413;416;420;424;429;433;438;442;445;447;448;447;447;447;446;447;447;448;448;449;451;456;463;472;481;491;498;506;514;521;529;536;544;551;558;567;575;585;596;605;615;624;631;635;635;633;628;622;616;613;613;615;620;626;632
346;345;345;344;344;343;344;344;346;348;350;351;353;355;357;359;362;365;369;372;375;379;381;384;386;388;390;391;394;397;399;403;407;412;417;421;425;429;431;433;435;437;440;443;448;454;463;472;481;490;497;501;504;505;506;508;509;510;511;511;510;509;509;510;512;514;517;519;520;520;521;521;522;524;527;531;537;542;549;556;562;569;575;582;590;597;605;612;619;627;635;642;650;657;665;671;675;677;677;674;668;660;650;640;630;620;611;602;593;585;577;571;566;562;559;555;551;547;542;538;533;528;525;522;520;518;516;513;510;507;504;503;503;502;502;501;501;501;503;505;508;511;514;517;520;523;529;535;542;550;558;565;573;579;586;591;593;594;593;589;585;580;575;572;570;568;568;566;562;558;553;550;550;554;561;572;582;591;599;604;608;609;608;603;596;590;584;579;572;563;552;542;532;523;516;510;505;500;495;487;478;467;457;448;440;433;426;418;412;405;400;397;396;398;403;410;419;429;438;445;451;454;456;459;462;468;474;482;490;498;506;513;517;520;521;520;517;513;507;501;495;489;484;478;473;469;464;460;454;447;440;432;425;418;410;403;396;390;385;381;378;375;373;370;367;364;360;355;350;345;340;337;334;331;328;325;322;317;313;310;308;308;310;314;318;324;329;335;342;348;354;360;366;372;378;384;391;398;407;414;421;428;432;435;437;437;437;439;442;445;449;453;455;455;451;446;442;440;439;441;445;448;450;448;442;435;429;425;423;425;430;436;442;449;454;458;458;457;454;451;446;441;435;428;423;418;414;410;406;402;399;398;399;402;406;409;411;410;406;402;397;393;391;389;387;385;383;383;384;385;385;384;383;381;380;378;377;376;376;377;379;382;385;386;387;387;387;388;388;390;391;392;392;393;394;396;398;401;404;406;408;409;409;409;407;405;403;401;400;399;400;401;403;406;409;411;413;415;416;417;417;418;419;420;423;425;428;430;431;431;431;430;430;428;425;422;420;418;418;419;421;423;424;424;425;425;425;424;421;419;416;413;411;409;408;408;409;411;415;420;424;428;432;436;439;441;442;442;442;441;441;441;441;442;444;446;448;451;455;463;472;480;489;496;503;510;517;524;531;538;545;552;562;571;583;595;606;618;626;632;634;633;629;624;619;614;612;612;615;619;625;632
342;341;341;340;341;342;343;344;346;348;350;352;354;356;358;360;363;365;369;373;376;380;383;385;388;390;391;393;396;399;402;407;411;416;422;427;432;436;438;441;443;445;447;448;452;457;465;474;484;494;502;508;513;516;519;522;524;526;528;529;528;527;525;525;525;527;529;530;530;529;528;527;526;526;527;529;534;539;545;552;559;566;573;580;588;595;603;610;617;624;631;639;647;654;662;668;672;674;674;672;666;659;649;639;628;618;608;598;589;581;573;567;562;557;553;549;545;541;536;532;527;523;520;518;516;515;514;511;508;504;501;499;499;498;497;496;496;497;498;501;504;507;510;512;515;518;522;528;534;541;548;554;562;568;574;579;582;583;582;579;576;571;567;564;562;561;560;558;554;550;546;543;544;548;555;565;576;586;595;602;608;611;610;605;597;588;580;573;563;553;543;533;525;517;510;505;500;496;490;482;474;464;455;447;439;433;426;419;412;406;400;396;394;396;399;405;413;422;430;437;443;447;450;454;459;466;473;482;491;499;508;514;519;521;522;521;519;515;510;504;499;492;486;481;476;473;469;465;460;455;449;442;436;429;421;414;407;400;394;388;385;382;379;376;373;369;365;359;353;346;340;336;333;331;328;325;321;316;312;308;307;307;310;314;320;326;333;340;347;354;360;366;371;378;383;390;397;404;412;420;427;434;438;440;441;441;441;442;444;447;451;454;455;453;449;443;437;434;434;436;440;444;445;442;436;429;423;419;419;422;427;433;440;445;450;453;453;450;447;443;439;434;429;424;420;416;413;409;405;401;397;395;395;397;401;404;406;405;402;397;392;388;386;385;383;381;380;380;381;382;383;382;381;379;377;376;375;375;375;376;378;381;383;385;385;385;385;385;386;387;388;389;389;390;390;392;394;396;399;400;402;403;403;403;402;400;398;397;396;396;396;397;399;401;404;406;408;410;411;412;413;414;414;415;417;419;421;422;423;423;423;423;422;421;419;417;415;414;415;416;418;420;421;422;422;423;423;421;419;416;413;409;407;405;405;406;408;411;415;419;424;427;430;433;435;436;437;436;436;435;435;436;437;438;440;442;446;450;455;463;470;478;485;492;499;506;512;519;524;531;538;546;555;565;578;591;604;616;624;629;631;629;625;620;615;611;610;610;613;617;624;630
339;338;338;339;340;341;343;345;347;349;351;353;356;358;359;361;363;366;369;372;376;380;383;386;389;391;393;395;398;401;405;410;415;420;426;431;436;441;444;447;450;451;453;453;455;459;465;474;484;494;504;512;518;524;528;533;536;540;542;543;544;543;541;540;539;539;540;540;539;537;535;533;531;529;528;529;532;537;543;550;556;564;571;579;587;594;602;609;615;623;629;637;644;651;658;663;667;670;671;670;666;660;650;640;629;617;607;597;588;580;571;565;560;555;551;546;541;536;532;527;523;519;517;515;514;513;512;509;506;502;499;497;495;494;493;492;491;492;493;496;499;503;505;508;510;513;516;522;527;533;539;545;552;558;564;569;573;574;574;572;569;565;562;559;557;555;554;551;548;544;541;539;540;544;551;560;570;580;590;598;605;609;609;604;595;586;576;567;556;545;535;526;518;510;504;499;494;489;483;476;468;460;451;444;437;431;425;418;412;405;399;395;393;394;398;403;409;416;423;430;436;441;446;451;457;465;473;483;493;502;510;516;520;521;521;520;518;515;510;505;499;493;487;482;478;476;473;470;466;461;456;450;445;439;432;426;418;411;404;398;393;390;386;383;379;375;370;363;356;349;342;337;333;330;327;324;320;315;310;307;306;307;310;315;322;329;336;344;351;358;364;370;375;381;387;394;401;408;417;425;431;437;441;442;443;442;441;442;444;447;450;453;453;451;446;439;433;429;429;431;436;439;440;436;430;424;418;415;416;419;425;430;436;442;445;447;446;443;440;436;431;427;423;418;415;413;410;407;403;399;395;392;391;392;395;398;400;400;397;392;387;384;382;381;379;378;377;377;378;380;381;381;380;378;376;375;374;373;374;375;378;380;382;384;384;383;383;383;384;385;386;386;386;387;387;388;389;391;393;395;396;398;398;398;398;396;395;393;393;393;393;394;396;398;400;402;404;405;407;408;409;410;411;412;413;415;416;417;417;417;417;416;416;415;414;412;411;410;411;413;415;417;419;420;421;421;420;419;416;413;409;406;403;402;402;405;408;411;415;419;423;426;428;430;432;432;432;432;432;431;432;432;433;435;437;440;443;448;454;461;468;475;482;488;495;502;508;514;519;526;532;540;549;559;571;585;598;610;619;624;626;624;621;617;613;610;607;607;610;614;621;628
335;335;336;338;340;342;344;346;348;350;353;356;358;360;362;364;365;367;370;373;376;380;384;388;391;394;396;398;401;405;409;414;420;425;431;436;441;446;450;453;456;458;459;459;460;462;466;474;483;493;504;512;521;528;535;541;546;550;554;556;557;557;556;554;553;552;551;550;548;546;543;540;536;533;530;530;531;535;541;548;554;562;570;578;586;594;602;609;615;622;628;634;640;646;653;657;662;666;669;669;667;662;653;643;631;619;609;598;589;581;572;566;560;554;549;543;538;533;528;524;519;516;514;512;511;510;509;507;504;500;497;494;492;489;487;486;485;486;488;491;494;497;500;502;505;507;510;514;519;524;530;535;542;548;555;560;563;566;566;564;562;559;555;552;550;548;546;543;540;537;534;534;535;539;545;554;563;573;583;592;600;605;605;600;593;583;572;563;552;541;531;520;511;504;497;492;487;482;476;469;462;454;447;441;434;429;423;417;411;404;398;394;392;392;395;399;404;410;416;423;430;436;442;449;456;465;474;485;496;505;512;517;520;521;520;518;515;512;507;503;497;491;486;482;480;478;476;474;471;467;463;458;454;448;443;437;430;422;415;408;403;398;393;389;385;380;374;367;360;351;343;337;333;329;326;322;318;314;310;307;305;306;310;316;323;331;339;346;354;360;366;372;378;384;390;397;405;413;421;429;435;440;442;442;442;440;439;440;441;444;447;450;450;447;441;434;427;423;423;426;431;434;434;431;425;418;413;411;412;415;420;426;431;435;438;439;438;435;431;427;423;419;415;412;410;408;406;403;399;395;391;388;386;386;389;392;394;395;392;388;383;380;378;377;376;375;374;374;375;377;379;380;379;377;376;375;373;372;372;374;377;379;381;382;382;382;382;382;382;383;383;384;384;384;384;384;385;387;388;390;391;393;394;394;393;392;391;390;390;389;390;391;392;393;395;396;398;400;402;403;404;406;407;408;409;410;411;411;411;411;411;410;410;409;408;407;406;406;408;410;412;414;416;418;418;418;417;415;412;408;405;401;399;399;401;404;407;411;415;418;421;424;426;427;428;428;428;428;428;428;429;430;431;433;436;438;442;446;452;459;465;472;479;485;492;499;504;510;516;522;528;535;544;554;565;579;591;603;612;617;619;619;617;614;610;607;604;603;605;610;617;626
334;335;337;339;341;343;345;347;349;352;355;358;361;364;366;367;368;369;371;374;377;381;385;389;393;396;399;402;405;409;414;419;424;430;435;440;445;450;455;459;463;465;465;465;464;465;467;473;480;490;500;510;519;528;536;544;550;556;560;563;566;567;566;565;564;562;561;559;556;553;550;547;542;537;534;531;532;535;540;547;553;561;568;577;586;594;602;609;614;620;625;631;636;641;647;651;656;661;666;669;669;665;657;647;635;623;612;602;593;584;575;568;562;555;550;544;538;532;526;522;518;514;512;510;509;508;507;505;502;499;495;492;489;486;483;481;480;480;482;485;489;492;495;497;499;501;505;508;512;517;522;528;534;540;547;552;556;559;559;558;555;553;549;545;542;540;537;534;532;530;529;529;530;534;540;548;557;566;576;585;593;598;599;595;588;580;569;560;550;539;529;517;508;499;492;487;481;475;469;462;456;449;443;437;431;426;421;415;409;403;397;393;390;391;393;396;400;406;411;418;425;432;440;448;456;467;477;489;500;509;515;518;519;519;517;514;510;506;501;497;491;487;483;480;479;479;478;477;475;472;469;465;461;457;452;446;439;431;424;417;410;405;399;394;389;384;378;370;362;354;345;338;333;328;325;321;317;313;309;306;305;307;312;318;325;333;340;347;354;360;366;372;378;385;392;399;407;415;424;431;436;440;441;440;438;436;435;435;437;440;443;445;446;443;437;429;422;417;417;421;426;430;430;428;422;416;410;408;408;411;415;420;424;427;429;430;428;425;422;418;415;411;408;406;404;402;401;398;395;391;387;383;381;381;383;386;389;390;388;384;380;377;375;374;374;373;373;373;374;376;378;380;379;378;376;374;373;371;371;373;376;378;380;381;381;381;381;381;381;381;381;381;381;381;381;381;382;383;385;386;388;389;390;390;390;389;388;387;387;387;387;388;388;389;391;392;393;395;397;399;400;402;403;405;406;406;407;407;407;406;406;406;405;405;404;403;402;403;405;407;410;412;414;416;416;416;414;411;408;404;400;398;397;397;400;404;408;412;415;418;420;422;423;424;424;424;425;426;426;427;427;429;430;433;436;438;442;446;451;457;463;470;477;483;491;497;503;509;514;521;527;533;542;551;561;573;584;595;604;611;614;615;614;611;607;603;600;599;601;606;614;624
334;336;338;340;342;344;346;348;351;354;358;362;365;368;370;371;372;372;374;376;378;382;386;391;395;399;403;407;410;415;419;425;430;436;441;446;452;457;462;467;471;473;474;472;471;469;470;473;479;486;496;505;515;524;533;543;550;557;563;568;571;573;574;574;573;572;570;568;565;562;559;554;549;544;539;535;534;536;540;546;552;559;567;576;585;593;600;606;612;617;621;625;631;636;641;646;652;658;664;669;670;668;661;651;640;627;617;606;597;588;579;572;564;558;552;545;539;532;526;521;517;513;511;508;507;506;505;503;500;497;493;489;486;482;479;477;475;475;477;480;483;486;489;491;494;496;499;502;505;510;515;520;526;532;539;545;549;551;552;550;548;545;541;537;533;530;527;524;523;522;521;522;524;529;534;542;550;558;567;576;584;589;590;588;582;575;566;558;549;538;527;516;506;497;489;483;477;471;465;458;452;445;440;435;430;425;420;414;408;401;396;391;389;388;390;393;396;401;407;414;422;431;440;449;458;469;481;493;504;512;517;519;519;516;512;508;503;499;493;488;484;480;477;476;476;477;478;478;477;475;473;471;468;465;460;454;446;439;431;423;416;409;403;397;391;386;379;371;364;355;346;339;332;327;322;318;315;311;308;306;306;309;314;320;327;334;341;347;354;359;365;371;378;385;393;401;409;417;425;431;436;438;438;436;434;431;429;430;432;435;439;441;442;439;432;424;417;412;412;415;421;425;427;426;421;415;409;405;405;407;409;413;416;418;419;419;418;415;412;409;406;403;401;398;397;396;395;393;390;387;383;379;376;376;377;380;384;385;384;381;377;374;373;372;372;372;371;371;372;374;377;379;379;378;376;373;371;369;370;372;374;376;378;379;379;379;379;379;379;379;379;379;379;379;379;379;379;380;381;382;384;385;386;386;386;386;385;384;384;384;384;384;384;385;386;387;389;390;392;394;396;397;399;400;401;402;402;402;402;401;401;401;401;401;400;399;399;400;402;404;407;409;412;413;414;413;411;407;403;399;395;394;394;396;399;404;408;412;415;416;418;419;420;420;421;421;422;423;424;425;427;429;431;434;437;440;443;447;451;457;463;469;475;482;489;495;501;508;513;520;527;533;541;548;557;567;577;588;597;604;608;610;609;606;601;597;594;593;595;602;611;622
335;337;339;341;342;345;347;350;353;356;361;365;368;371;374;375;376;377;377;379;381;384;388;393;398;402;407;412;416;421;426;431;437;442;448;453;460;466;471;476;480;482;483;481;478;475;474;475;478;484;492;500;509;518;527;537;545;554;561;567;572;575;578;579;579;579;578;576;574;571;567;562;557;551;545;541;538;538;541;545;551;557;564;573;581;589;596;602;607;611;615;620;626;631;637;643;649;657;664;669;671;670;663;654;644;632;621;611;601;592;583;576;568;562;556;548;541;534;528;522;517;513;510;507;505;504;502;501;499;496;492;487;483;479;476;474;472;471;473;475;478;481;484;486;489;492;494;497;500;504;509;514;520;526;533;539;543;545;545;544;541;537;533;528;523;520;517;515;514;514;514;516;518;523;529;536;544;552;560;568;576;581;582;580;576;570;563;556;547;537;527;516;507;498;490;484;477;471;465;458;452;445;440;435;430;425;420;413;407;401;395;390;387;386;387;389;393;398;405;412;421;431;441;451;461;473;485;496;507;514;518;519;518;513;508;503;497;492;486;481;476;473;471;470;471;473;475;476;477;476;476;474;473;470;465;459;451;443;435;426;419;412;405;399;392;386;380;371;363;355;346;338;330;324;319;315;313;310;307;305;308;312;317;323;328;335;342;347;354;359;365;371;378;386;394;402;410;417;424;429;432;433;432;430;427;425;423;424;427;431;435;439;439;436;428;420;412;407;407;411;417;422;426;426;422;415;408;403;401;402;403;406;408;409;410;409;408;406;404;401;398;396;394;392;391;391;390;389;386;383;379;375;373;372;373;376;379;381;381;378;375;372;371;371;371;370;370;370;371;373;376;379;379;378;375;372;369;368;368;370;371;373;375;377;377;377;377;377;377;377;378;378;378;378;377;377;377;377;378;380;381;382;383;383;383;383;382;382;381;381;381;381;381;382;383;384;385;387;388;390;392;393;395;396;397;397;397;397;397;397;397;398;398;397;397;396;397;398;400;402;405;407;409;411;411;409;407;403;398;394;392;391;392;395;399;404;408;411;413;415;415;416;417;417;418;419;420;422;424;425;427;430;433;436;439;442;446;449;453;458;463;468;474;480;486;493;499;506;512;520;527;533;540;547;555;563;572;583;592;598;603;603;601;597;592;588;586;586;590;597;608;619
336;337;339;341;343;345;347;350;354;358;363;367;371;375;378;380;381;382;382;383;385;388;391;396;400;405;411;417;422;428;433;438;443;448;455;462;469;476;482;488;491;493;493;491;487;483;480;479;479;483;489;495;503;511;519;528;537;547;556;563;570;575;579;581;583;584;584;583;582;580;576;572;567;560;554;548;544;542;543;546;550;555;561;568;576;583;590;596;600;605;609;615;621;628;635;642;650;657;664;670;672;671;665;657;647;636;625;615;605;596;587;580;573;566;560;552;545;537;530;524;518;514;510;506;503;501;499;498;496;494;490;486;481;477;475;473;470;469;470;471;474;476;479;482;485;487;490;493;496;500;503;508;514;520;527;533;537;539;539;537;533;528;523;518;513;509;507;506;505;505;507;508;512;517;523;530;538;545;553;561;567;572;573;572;569;564;559;552;545;536;528;518;510;502;494;488;481;475;469;462;455;448;442;437;432;427;421;414;408;401;395;390;386;384;384;386;390;395;403;411;422;432;443;454;464;476;487;498;507;514;517;518;516;511;505;499;493;487;480;475;471;467;465;464;465;468;470;473;475;476;476;476;475;472;468;462;453;445;437;428;420;413;406;400;393;387;379;371;362;353;343;335;327;320;315;312;310;308;306;306;310;315;320;325;330;336;342;348;354;359;366;372;380;388;396;404;411;417;422;425;426;426;424;422;419;417;417;418;422;427;433;437;437;433;425;416;408;403;403;406;413;419;424;425;421;414;407;401;398;397;398;399;400;401;401;401;400;398;396;394;391;389;387;386;386;386;385;385;383;380;376;372;370;369;370;373;376;378;378;376;373;371;370;369;369;368;368;368;370;373;376;378;378;377;374;371;367;366;366;367;369;371;373;375;375;375;375;375;375;375;376;376;376;376;376;375;375;375;376;377;378;379;379;380;380;380;379;379;379;379;379;379;379;379;380;381;382;383;385;386;388;389;390;391;392;392;392;392;392;393;393;394;395;394;394;394;395;396;398;400;402;404;406;407;407;405;402;398;394;390;389;389;391;395;400;404;408;410;412;413;413;413;413;414;415;417;419;421;424;426;429;432;435;439;442;445;449;451;455;459;463;467;472;477;483;489;495;503;510;518;525;532;539;545;551;559;567;577;586;592;595;595;591;586;581;577;576;578;584;592;602;614
336;337;339;341;343;345;348;351;355;360;364;368;372;377;381;383;385;386;387;388;389;391;394;398;402;407;414;421;427;434;439;444;449;455;462;470;479;487;493;499;502;503;503;501;497;492;488;485;484;485;489;494;499;505;511;519;528;537;547;556;565;572;577;582;585;587;589;589;589;588;585;581;576;570;564;558;553;549;548;549;551;555;559;564;570;577;583;589;593;599;605;612;619;627;636;644;652;660;666;671;673;670;665;657;648;637;627;616;606;598;590;583;577;570;563;555;548;540;532;526;520;514;510;505;501;499;496;495;493;492;489;484;480;476;474;472;469;468;468;469;470;471;474;477;480;483;487;490;493;496;499;503;509;515;522;528;532;534;534;530;525;519;513;508;504;500;499;498;497;498;500;502;505;511;517;525;532;540;547;554;560;564;565;565;562;558;553;548;542;535;528;521;515;508;502;496;489;483;477;469;462;454;447;442;435;429;423;416;409;402;395;390;386;383;381;383;387;393;401;411;422;433;444;455;466;477;487;497;505;510;514;515;514;509;504;498;491;485;478;473;468;463;460;458;459;461;464;467;469;471;473;473;473;471;467;461;453;445;437;428;420;413;406;401;394;386;378;368;359;349;340;331;323;317;312;309;308;307;306;307;313;319;323;328;332;337;343;349;355;361;368;375;382;391;399;406;412;416;418;419;419;417;415;413;411;410;411;414;419;425;431;435;435;430;422;413;405;400;399;403;409;416;421;422;418;412;404;398;395;393;392;392;393;394;395;395;394;392;390;388;385;383;382;381;381;382;382;382;380;377;374;370;368;367;368;370;373;376;376;375;372;370;368;368;367;366;366;367;368;371;374;376;376;374;372;368;365;364;364;365;366;368;371;373;373;373;373;373;373;373;374;374;374;374;374;374;373;373;374;374;376;376;377;377;377;377;377;377;377;377;377;377;377;378;378;379;380;381;382;383;384;385;386;387;388;388;388;388;388;389;390;391;392;392;392;392;393;395;397;398;399;401;402;402;401;399;396;392;389;387;387;388;391;395;399;403;406;408;410;410;410;411;411;412;414;416;419;422;425;428;430;434;438;442;445;449;451;454;456;460;463;466;470;474;479;484;490;497;504;513;521;529;536;541;547;554;561;571;578;583;584;583;578;572;567;565;566;570;577;585;595;607
336;337;339;341;342;345;348;351;356;360;365;370;374;379;383;386;389;391;392;393;394;395;397;400;404;409;416;423;431;438;443;449;454;461;469;478;487;496;502;508;510;512;512;510;507;502;497;493;491;490;492;495;498;502;506;512;519;528;538;548;558;567;574;580;584;588;591;594;595;594;592;590;586;580;574;568;562;558;555;554;554;556;558;561;566;571;577;583;588;595;601;610;618;627;637;646;655;662;668;672;672;669;663;655;646;636;626;615;606;598;591;586;579;572;565;557;549;541;533;527;521;515;510;504;500;497;494;492;490;489;486;483;479;475;473;471;469;468;468;467;466;467;468;471;475;480;484;487;489;492;495;499;505;511;518;524;528;530;529;524;518;511;505;500;496;493;492;491;491;492;493;496;500;505;512;520;527;534;542;547;552;556;557;557;555;552;548;544;539;534;530;525;521;516;510;505;498;492;486;478;470;462;454;448;440;433;425;417;410;403;397;391;386;382;379;380;384;390;400;410;422;433;444;455;465;475;484;493;500;505;508;510;510;507;503;498;491;486;479;473;467;461;456;453;452;453;456;458;461;464;466;467;467;466;463;457;450;442;435;427;419;413;406;400;393;385;376;365;355;345;335;327;320;314;310;308;306;305;306;310;316;321;325;329;334;339;345;351;358;364;371;378;385;393;400;407;412;414;414;413;411;408;406;404;403;403;406;410;416;424;430;433;432;427;419;409;401;396;396;399;405;412;417;418;414;408;401;395;391;389;387;387;387;388;390;390;390;388;386;384;381;379;378;377;378;379;380;380;379;376;372;369;367;366;367;369;372;374;375;374;372;369;367;366;365;364;364;365;367;370;372;374;373;372;369;366;363;362;363;364;365;366;369;371;371;372;371;371;371;371;372;373;373;373;372;372;372;371;372;372;373;374;374;374;374;375;375;375;375;375;375;375;375;376;376;377;377;378;379;380;381;382;383;384;384;384;384;385;385;386;387;388;389;390;391;391;392;394;395;396;396;396;396;396;394;392;390;387;385;385;386;388;392;396;399;402;405;407;408;408;408;408;409;411;413;416;419;422;426;429;432;436;440;444;448;451;454;456;458;461;464;466;469;472;476;479;484;490;497;506;515;523;530;536;541;547;554;562;568;571;571;568;563;558;554;555;557;562;569;577;587;598
336;337;339;340;342;345;348;351;356;361;366;371;375;380;384;388;392;394;396;397;397;399;400;402;406;411;417;425;432;440;446;452;458;465;474;483;493;502;508;513;517;519;520;519;517;513;508;503;500;498;498;500;501;504;506;510;515;522;531;541;552;561;570;577;583;589;593;597;599;600;599;597;594;589;584;578;572;567;564;561;561;560;560;562;565;569;574;580;586;593;600;609;619;628;639;649;657;664;669;671;669;665;659;651;643;633;623;612;603;595;590;585;579;571;564;557;549;541;533;527;521;516;510;504;499;495;491;489;487;485;483;480;477;474;472;471;470;469;467;465;463;462;463;465;470;475;480;484;486;489;492;496;502;509;515;521;525;527;524;519;512;505;498;493;490;488;487;486;486;486;488;490;494;500;506;514;521;528;535;540;544;547;548;548;547;545;543;540;536;533;531;529;526;523;518;513;507;501;494;486;478;469;461;453;445;436;428;419;411;404;398;392;386;381;377;378;381;388;397;408;420;431;442;453;462;471;479;486;493;497;502;505;506;505;502;498;492;487;480;474;467;460;454;449;446;446;447;449;451;454;457;458;459;459;456;451;445;438;431;424;417;410;404;398;391;382;372;360;350;340;331;324;317;312;308;307;305;304;307;312;317;322;326;330;335;340;346;353;359;365;372;379;386;394;400;406;410;411;409;407;403;400;398;396;396;397;402;408;415;423;429;431;429;423;414;405;397;393;393;396;401;407;412;412;409;404;398;393;388;385;383;382;382;384;385;386;386;385;383;381;378;375;374;374;375;377;378;379;378;375;371;368;366;365;365;368;370;373;373;373;371;368;366;364;363;362;362;362;364;367;369;371;370;369;366;364;361;361;361;363;364;365;367;369;370;370;370;369;369;370;370;371;371;371;371;370;370;370;370;371;371;372;372;372;372;373;373;373;373;372;372;373;373;374;374;374;375;375;376;377;378;380;381;381;381;381;381;382;383;384;385;386;387;388;388;390;391;392;392;392;392;391;390;389;387;385;383;382;381;382;385;388;392;395;398;401;403;404;405;405;405;407;409;411;413;416;420;423;427;430;433;437;442;446;450;454;457;459;461;464;466;467;469;471;473;475;479;484;490;498;507;514;522;527;533;539;544;550;553;555;555;552;548;544;544;546;550;556;563;570;579;589
336;337;339;340;342;344;347;351;356;361;367;372;376;381;385;389;393;396;398;399;400;401;402;404;408;412;418;425;433;440;447;454;461;468;477;486;495;504;510;516;520;524;526;527;526;523;518;513;509;507;506;506;507;509;510;512;515;520;527;536;546;556;566;575;582;588;594;599;603;604;604;603;600;596;592;587;581;577;573;570;568;566;565;565;566;569;574;579;585;593;600;609;620;630;641;650;659;665;669;669;666;661;654;646;637;628;618;607;598;591;585;580;575;568;562;554;547;539;531;526;521;516;510;504;498;493;489;486;483;481;479;477;475;473;472;471;470;469;466;462;459;457;457;460;465;471;476;481;483;486;490;494;500;507;514;519;523;523;521;515;507;500;494;489;487;485;483;482;481;482;483;485;489;494;500;507;515;522;528;533;536;538;539;539;539;538;537;535;533;532;532;531;531;529;525;520;514;507;500;492;484;475;466;458;448;439;429;420;412;405;398;392;385;380;376;376;379;385;394;405;417;428;439;449;457;465;472;478;484;489;494;498;501;502;501;497;493;487;481;474;466;458;451;445;441;439;438;439;441;444;447;449;451;451;448;444;439;433;426;419;412;406;399;393;386;377;367;355;345;336;328;321;315;310;307;305;304;304;308;314;318;322;326;331;335;341;347;352;359;364;371;378;385;393;399;404;407;407;405;401;397;394;391;390;391;393;399;406;415;423;428;428;425;418;409;401;394;391;391;393;398;403;407;407;405;400;395;390;386;382;380;378;378;380;381;383;384;383;382;379;375;372;371;371;372;375;377;378;377;374;371;367;365;363;364;366;369;371;372;372;370;367;365;363;361;360;359;359;361;364;366;367;367;366;364;361;360;359;360;362;363;364;366;367;369;369;368;368;368;368;369;369;369;369;369;369;368;368;369;369;369;369;370;370;371;371;371;371;370;370;370;370;371;372;372;372;372;372;373;374;376;377;378;379;379;379;379;380;381;382;383;384;385;386;386;387;388;389;389;389;388;386;384;382;380;378;377;377;379;381;384;387;391;394;397;399;400;401;402;403;404;406;409;411;414;418;422;425;428;431;435;439;443;447;452;455;459;462;465;467;469;470;471;471;472;473;475;479;484;491;499;506;512;518;523;528;533;536;538;539;538;536;535;534;536;540;546;551;558;564;572;581
336;338;339;340;342;344;348;352;357;362;368;373;377;382;386;390;393;397;399;402;403;405;406;408;412;415;421;426;433;440;447;454;462;469;477;485;494;502;509;516;521;526;531;534;534;533;529;524;520;517;516;516;517;517;518;518;519;522;527;534;543;553;562;571;579;587;594;600;605;608;609;608;606;603;599;595;590;587;583;580;577;574;572;570;571;572;576;581;586;593;600;610;620;630;641;650;659;665;668;667;663;656;648;640;631;622;612;601;592;584;578;573;568;563;557;550;542;535;528;524;520;515;510;504;498;492;487;483;480;477;475;474;472;472;471;471;470;468;464;459;454;452;452;455;460;467;472;477;480;484;488;492;499;505;512;517;520;520;517;511;504;497;491;487;484;481;479;477;476;476;478;480;483;488;493;500;507;513;519;524;526;528;528;528;528;529;529;529;529;530;531;532;533;533;530;525;518;511;503;495;487;478;469;461;450;440;431;421;413;405;398;392;384;379;375;374;376;383;391;401;412;423;433;443;451;459;465;470;476;481;487;492;496;498;498;495;491;486;479;472;464;455;448;441;436;433;431;431;432;434;437;441;443;443;441;438;433;427;421;413;406;399;392;387;379;370;360;349;340;331;324;318;313;309;306;304;302;304;309;314;318;321;325;330;334;340;345;350;356;361;367;374;382;390;396;401;403;403;401;397;393;389;387;386;386;390;397;406;414;422;426;424;419;412;404;397;392;389;388;390;394;398;401;402;400;397;393;388;384;380;377;375;375;375;377;379;380;380;379;376;372;369;367;367;369;372;374;375;375;373;370;366;363;361;361;363;366;369;370;370;368;366;364;362;359;357;356;356;358;360;363;364;364;363;362;360;358;358;359;361;362;363;364;366;367;368;367;367;367;367;367;367;367;367;367;367;367;367;367;367;367;367;368;369;369;369;369;368;368;367;367;368;368;369;370;370;369;369;370;371;373;374;376;376;376;376;376;376;377;379;380;381;382;382;383;383;384;384;385;384;383;380;378;376;374;373;373;374;377;379;383;386;389;393;395;397;398;399;400;402;405;408;410;413;416;420;424;427;430;434;437;441;444;448;453;457;461;465;468;471;473;474;474;474;474;474;475;478;482;487;493;498;504;508;513;517;520;523;524;525;525;525;526;529;533;538;544;550;556;562;570;577
336;338;339;340;342;345;349;353;359;364;369;374;378;382;386;390;394;397;401;404;407;410;412;414;417;420;424;429;434;440;446;453;461;468;476;482;489;497;504;512;519;526;533;537;540;540;538;534;530;527;526;527;527;528;527;527;526;527;530;535;542;550;559;568;577;585;593;600;606;610;612;612;611;608;605;601;598;595;592;589;586;583;579;577;575;576;578;582;587;594;601;610;621;630;641;650;657;663;666;664;659;652;644;635;626;616;606;596;587;579;572;567;562;557;551;544;537;531;525;521;518;514;509;503;498;492;486;481;477;474;472;470;470;470;470;470;469;466;462;455;450;447;448;451;456;463;469;474;478;482;486;491;498;504;510;514;516;516;514;509;503;496;490;486;482;479;476;473;472;471;472;474;478;482;487;493;499;505;510;514;517;518;518;518;518;520;521;522;524;526;529;532;534;534;532;527;520;512;503;495;487;479;470;462;451;441;431;421;413;406;399;391;384;378;374;373;375;380;387;396;407;417;427;437;445;453;458;463;469;475;481;487;492;495;495;493;489;483;477;469;461;453;446;439;434;430;426;425;425;427;430;434;437;438;437;433;428;422;415;407;399;392;385;379;371;363;354;343;335;327;321;315;310;307;305;302;302;304;309;314;317;320;324;329;333;338;343;347;353;358;364;371;378;386;393;397;400;400;398;394;390;386;383;383;384;388;396;405;414;420;423;420;415;408;400;394;389;386;385;386;390;394;397;398;397;394;391;386;382;378;374;372;371;372;374;375;377;377;375;372;368;365;363;364;366;369;371;372;372;371;368;365;361;359;359;361;363;366;368;368;367;365;363;360;357;354;353;353;355;357;359;361;361;361;360;359;357;357;358;360;361;362;363;365;366;367;366;366;365;365;365;365;365;365;365;365;366;366;366;366;366;366;366;367;367;367;367;366;365;365;365;365;366;367;367;367;367;367;368;369;370;372;373;374;373;372;372;372;373;374;375;376;377;377;378;378;378;379;379;379;378;375;373;371;370;370;370;373;376;379;382;385;388;392;394;396;398;399;401;403;406;409;412;415;419;422;426;429;432;436;439;442;445;449;454;458;463;467;471;475;477;478;478;477;477;477;478;481;484;487;491;494;498;501;504;507;510;512;514;515;517;519;523;528;534;540;546;552;558;564;570;577
